# 3D point list with one line of data per point:
#   POINT3D_ID, X, Y, Z, R, G, B, ERROR, TRACK[] as (IMAGE_ID, POINT2D_IDX)
# Number of points: 309, mean track length: 5.6595259799453057
1362 -1.976400953022031 1.2605871620632063 4.9334450288804979 116 106 99 2.5427654784769396 27 3856 26 3694 25 3739 14 3938 13 4247
1361 -1.1178321562728522 1.3804975346194717 5.0357734264481628 97 98 104 1.5369127898752812 31 3496 27 3854 47 2860 32 2658 26 3632 46 2480 48 3154 15 3708
1360 -0.81256005186857438 1.1508842972654192 5.2842887099344296 166 105 81 1.3762979935126973 31 3449 27 3850 47 2797
1358 -2.0750738270441684 2.1078089554963793 5.3444683708081042 128 120 115 0.74900717406284478 30 3644 33 3190 27 3826 26 3666 25 3650 13 4227 28 3661 29 3751
1357 -1.7869125680334492 2.0651494310401399 5.1596919921331201 60 60 58 1.5163340000821981 30 3683 27 3821 32 2750 26 3664 46 2629 48 3178 45 2671 28 3656 28 3706 29 3795 49 3275
1355 0.058967179501298303 2.2550587390536019 5.3476074860099647 58 34 27 0.83980559266750698 33 3230 27 3811 47 2923 32 2787 26 3658 26 3716 46 2670 45 2705 25 3755 15 3739 24 3584 34 2606 44 2644 35 3001 43 2417 16 3587 36 2632 42 2193 37 2315 41 1923 38 2300
1354 0.11383195913429005 2.0963581490664609 5.268873261703388 53 32 25 1.4595214962357432 30 3629 27 3804 14 3881 13 4128 28 3637
1353 -0.91494028434264962 1.4777869554178418 5.0749935163789033 92 50 40 1.4964709269842664 31 3455 27 3798 47 2867 32 2732 26 3636 48 3050 33 3172 25 3686 14 3873 15 3713 13 4182 28 3576
1352 0.57648826004236353 1.7908397641708331 5.2070819425066492 141 112 108 1.1271098737797789 31 3457 27 3795 47 2871 46 2662 41 1937 37 2312
1351 0.57648826004236353 1.7908397641708331 5.2070819425066492 141 112 108 1.1271098737797789 31 3456 27 3794 47 2870 46 2661 41 1936 37 2311
1350 0.15190483078144015 1.5970151779285695 5.1060984342674542 78 41 28 1.6495976140562882 30 3622 27 3791 26 3635 14 3866 13 4107 28 3627 29 3721 11 3440 12 4063
1349 -1.9163070925409278 1.003367689793585 4.8746331426464424 97 95 91 1.5194195036404807 31 3448 27 3787 47 2784 32 2647
1348 -0.80820153602337297 1.1779041039207854 5.276345977188476 164 98 76 2.0414304313246396 30 3531 27 3786 28 3626 29 3652 12 4161 13 4240
1347 -1.9128736606350101 0.88380676996455121 4.8012267853594564 126 122 122 0.98342661440619961 33 3099 27 3785 32 2639 26 3623 14 3929 15 3764 13 4244 12 4164
1346 -0.41584072549702139 1.1665158292023687 5.1919356997958692 239 250 251 1.6408720383342428 27 3783 47 2686 32 2724 26 3691 46 2612 14 3925 15 3766 13 4167 28 3561 16 3612 23 3063 29 3646 12 4122 10 3563 11 3600 9 3670 17 2923 22 2599 2 3052 1 2722
1345 0.63292370690211663 1.1064172696685022 5.2390344345402102 211 232 229 0.84184367080875266 31 3361 27 3776 26 3618 33 3168 45 2511 14 3920 13 4231 28 3619 30 3524 12 4118
1343 -0.11914202150207659 2.6352954077089561 5.4570004729424593 37 23 15 0.57522074372116239 31 3423 33 3198 27 3764 32 2707 26 3599 25 3660 15 3684 13 4079 24 3549 23 3049
1342 -1.9910080363186937 2.0379733156089235 5.2948225445227584 44 43 40 1.3314742843814837 31 3415 27 3762 32 2690 33 3140 26 3592 25 3645 14 3842 13 4151 28 3610 30 3584 29 3703
1341 0.51990783273251007 2.583421833262193 5.536848522599338 71 46 39 0.95160057882191429 33 3236 27 3760 26 3667 25 3714 28 3522 24 3550
1339 0.73157688539078225 2.6321560313008265 5.5268556465896044 18 14 11 1.2797034901312505 30 3577 27 3758 14 3774 26 3595 13 4067 28 3597 12 4010 10 3394 11 3463
1338 -1.9517132818425424 1.4951314284290727 5.0292599449507307 23 20 17 0.97295013717313283 30 3546 31 3391 27 3747 32 2546 47 2804 46 2489 48 3052 34 2229 15 3588
1337 -0.84258204922438817 1.6674513426880093 5.0710303843395739 125 119 110 1.0481942950745253 33 3121 27 3742 32 2673 26 3577 46 2580 45 2621 25 3530 14 3765 13 3958 24 3404 34 2496 44 2560 35 2888 43 2329 16 3457 23 2941 36 2523 42 2109 12 3915 11 3225 10 3144 17 2651 22 2458 37 2219 18 2470 19 1888 20 2007
1336 -1.1690621897108811 1.5217381698872761 5.0544649909322299 91 54 41 0.74054955076481621 31 3383 27 3738 47 2808 32 2662 33 3117 26 3574 46 2576 45 2616 25 3629 14 3760 24 3394 34 2494 44 2555 35 2651 43 2157 16 3445 17 2635
1335 -0.52017281584960107 1.3251233151433479 5.0279305847550599 98 101 103 0.93507845060259898 31 3374 27 3728 32 2655 26 3570 25 3679 33 3112 14 3819
1334 -0.54867347449234161 1.2749489545815971 5.1123290611448811 213 220 230 0.52611794265826872 31 3239 27 3726 13 4171
1333 -0.26960195538381487 1.3241778112570142 5.1353234185004109 115 121 120 0.88594928920455163 30 3533 31 3373 27 3725 48 2945 14 3815 28 3563
1332 0.59783263367636652 1.0091354385012794 5.3381024073714398 223 236 243 1.0370169609981232 31 3221 27 3709 26 3559 14 3810 15 3701 13 4091 28 3458 12 3963 10 3431
1331 -0.12573439399050845 2.880627724487455 5.5529658836368911 43 29 23 1.2125417859109204 30 3509 27 3695 29 3520
1330 -0.46519806011225256 2.5933083696722368 5.4364660882902331 98 87 88 0.61305869673464652 30 3502 33 3086 27 3693 47 2775 26 3439 48 3021 25 3452 14 3515 27 3597 15 3332 13 3826 28 3431 24 3324 34 2454 43 2314 23 2881 36 2492 42 2087 12 3568 17 2350 23 2584 37 2187 41 1833
1329 0.34615985962946932 2.7847892279235902 5.5746004073954811 16 11 9 2.1095206175757224 31 3425 32 2630 25 3314
1328 -0.047166399544852175 2.6175842963317755 5.4470509266333833 31 18 7 0.3847039452998024 31 3338 27 3687 26 3539 25 3590 13 4075 12 3927
1327 -1.1189758316865692 1.9022524002482633 5.1921242634561198 169 154 141 0.60152349715012732 33 3045 27 3671 32 2575 26 3520
1326 0.72478905172912189 2.1412005888498591 5.3276439686327137 73 35 24 0.41275203658918347 31 3300 27 3657 47 2744 32 2590 26 3514 48 2999
1325 -0.62113284227697896 1.7132616544023702 5.1195583800218696 79 42 30 0.46984754605610246 30 3447 27 3656 14 3633 15 3435 13 3949 28 3373 29 3450 12 3753
1323 0.017726101560747779 1.4090278499895239 5.0353058730861626 40 25 20 1.0053693939815429 31 3241 33 3011 27 3640 47 2696 26 3481 46 2482 45 2521 25 3511 15 3406 44 2465 35 2783 43 2239 36 2432 42 2102 37 2151
1322 0.017519081372450927 1.4095074782568544 5.035181529722708 40 25 20 1.0865143516126889 31 3240 33 3012 27 3639 47 2695 26 3482 46 2481 45 2520 25 3512 14 3588 15 3407 44 2464 35 2784 43 2240 16 3307 36 2433 42 2103 37 2150
1321 1.0412299797040896 1.6191617442996555 5.1467380026836276 49 29 22 0.51850855156712117 31 3247 27 3638 40 1883
1320 1.0412299797040896 1.6191617442996555 5.1467380026836276 49 29 22 0.51850855156712117 31 3246 27 3637 40 1884
1318 -1.9205077999674536 2.3718233930347901 5.3755952263643749 137 127 120 0.25174594206881107 31 3201 27 3615 47 2650 32 2496
1317 -0.56694139999973436 2.6466568128754218 5.4542847136997104 19 13 8 0.49147287385900529 31 3202 27 3603 26 3446 48 2741 25 3462 13 3998 42 1998 41 1766 40 1631
1316 -0.71258633961912254 2.5780492893169114 5.3475444110051962 30 22 19 0.69071980946834899 31 3199 27 3602 47 2773
1314 -0.56301024237354946 2.5980585412058876 5.4378305237227176 70 44 37 0.50877800108762095 31 3198 27 3600 47 2776 32 2625 26 3441 46 2562 45 2604 25 3454 34 2452 44 2539 43 2313 23 2879 42 2084
1313 -0.58760044816258128 2.5073645340204105 5.4054317916528944 73 32 21 0.40161785362545405 31 3191 27 3594 32 2499 26 3435 46 2438 25 3440 15 3323 24 3311 34 2325
1311 -1.8469471278508673 2.0558511298753817 5.1984256368412263 117 104 92 1.2396089012663345 30 3357 31 3022 27 3591 47 2464 32 2345 33 2803 26 3406 46 2282 48 2858 45 2340 25 3264 14 3702 13 4007 28 3437 24 3116 34 2144 44 2262 35 2337 43 1881 36 1707 23 2478 29 3499 42 1431 12 3960 11 3408
1310 -0.1833980084141392 2.5750396885014948 5.4396320343792643 68 63 70 1.3604996934464091 31 3337 27 3589 47 2770 14 3501 28 3202
1309 0.31283321319345292 2.5472983404405096 5.4682126925077386 65 42 35 1.044251661470522 30 3351 27 3580 47 2762 32 2615 26 3424 46 2553 25 3443 14 3488 15 3504 13 3794 28 3180 24 3335 34 2455 29 3487 49 3120 12 3065
1308 0.3949635709959316 2.5435868205246615 5.4592723804463708 75 45 41 0.44886603651528728 30 3348 33 3079 27 3574 32 2613 26 3421 45 2601 25 3444 14 3481 15 3503 13 3788 28 3177 24 3338 34 2456 23 2896 10 2926
1307 0.068285334320269689 2.3887865185700186 5.3948891885335977 77 37 25 0.21951560084821506 31 3172 27 3568 14 3684 15 3496 13 3968 10 3301 11 3356
1306 -1.8929840944096501 1.7798950797926301 5.1038119724908171 128 117 110 0.61230561744038992 33 2919 27 3567 26 3385 25 3226 14 3494 15 3096 34 2252 44 2369 35 2513 43 2162 36 1984
1305 0.80899196589545574 2.5594992555837708 5.4605064043601486 33 21 16 0.65529107022840216 31 3175 27 3566 47 2648 32 2485 26 3417 46 2439 48 2887 14 3675 13 3774 12 3453 10 3292 11 3348 2 2740
1304 0.72548512539482191 2.5384869320311574 5.4941405521405269 61 45 35 1.5566221206899022 30 3484 27 3564 48 3092 14 3672 26 3416 15 3500 29 3604 49 3116
1303 0.7201476468627499 2.5302261873362499 5.4740621860186627 61 45 35 0.81955324303510479 31 3326 27 3563 47 2844 26 3415 48 3091 14 3673
1301 -0.19409995798968901 2.2012744898213765 5.3017286480092078 77 37 23 1.3601904896034196 30 3329 27 3557 47 2753 32 2601 26 3397 25 3564 14 3469 15 3484 13 3786 11 2990 10 3163
1300 -1.845069769599452 1.5898485308950914 4.9947180917698653 23 21 18 0.28789351920003847 33 2911 27 3549 32 2438 14 3669 13 3986 28 3404 34 2241 35 2503 43 2025 44 2223
1298 -2.0461544509827609 1.4757655021375411 5.0845293772380371 95 85 75 0.47851373536509273 31 2939 27 3545 47 2392 32 2286 26 3199 14 3457
1297 -0.36948073491997713 1.7819318408071434 5.1405327302080686 78 38 24 1.2769441696498296 31 3278 27 3532 47 2726 33 3036 32 2565 26 3374 46 2509 48 2985 45 2539 25 3382 14 3631 15 3441 28 3371 24 3261 43 2259 35 2803 16 3338 29 3453 49 3073 10 3129 9 3276 3 2438
1296 -1.2574719323251093 1.4511981994271947 4.9814822321461181 17 17 15 1.0237295052837123 31 3257 27 3524 47 2697 46 2485 13 3775
1295 -0.0012093961665732757 1.7077803301050805 5.1250208571440341 32 17 16 0.20640395887529203 30 3085 27 3517 14 3611 13 3736 28 3107 10 3104
1294 0.078938865732827684 1.7122888752663219 5.1359941518515315 28 16 11 0.65061747436271211 30 3300 27 3516 32 2553 14 3610 15 3423 28 3104 35 2804 48 2820 16 3336 23 2956 36 2454 29 3212 49 2947 41 1798
1293 0.73183094939770788 1.7185026692198619 5.1940884731005097 69 32 22 1.192213724679122 30 3282 27 3506 26 3354 48 2819 14 3599 28 3329 49 2945 10 3077
1292 -0.46408239543231433 1.3744879429685311 4.9973217734488156 147 151 154 0.7167245103206521 31 2900 27 3497 47 2106 32 2267 26 3347 33 2891 46 2220 45 2272 14 3602 11 3451
1290 -1.8628444011207295 0.94281074464679226 4.8077123657848402 12 12 11 1.5015326443671619 31 3226 26 3562 32 2645 25 3676 33 3165 15 3704 24 3501 34 2536 35 2934 43 2354 16 3547 9 3613 8 3139 3 3247
1289 0.097459126518597283 0.8058178005341764 6.2007521862105976 248 124 94 1.2925337393650556 30 3013 27 3467 26 3467 28 3288 12 3852
1288 0.10280360129908135 0.62414037771759123 6.3890351576067346 73 25 15 0.19503858431828311 31 2865 27 3454 28 3278 29 3144
1287 0.1004079321057355 0.62368015445404712 6.3853069997508305 73 25 15 0.29554585219956275 31 2864 27 3453 32 2219 28 3277 29 3145
1286 -1.5688817905379171 2.6012489690827083 5.3324916884237492 98 86 80 0.068864690999641751 27 3451 47 2519
1285 -1.9413826628591473 2.3418236394655412 5.3954576254405575 38 33 35 0.25893014983887119 31 3061 27 3441 32 2176 33 2358 26 3093 25 2767
1284 -1.9407915867071583 2.3416808024362328 5.3930934195552664 38 33 35 0.33090477480839009 31 3060 27 3440 32 2175 47 2279 26 3094 46 2133 48 2723 49 2844
1283 -1.8591132159768839 2.350078882982042 5.3477281772459309 41 34 32 0.32159901810452252 31 3058 27 3439 32 2178 26 3097
1282 -1.8822167518021398 2.3475628171305094 5.3614971784822592 49 40 36 0.17830865168294041 31 3057 27 3437 32 2177
1281 -0.59073572240030026 2.6859233997882974 5.440579884629142 138 85 27 0.56086724308546487 30 3379 31 3204 27 3429 32 2512 26 3117 25 3466 14 3524 15 3339 13 3843 24 3336 23 2884 36 2394 17 2704
1280 -0.63098419410276541 2.60736635745431 5.4418582039575565 60 43 32 0.31160113572267856 31 3200 27 3424 32 2507 26 3443 25 3456 33 3087 14 3522 15 3334 13 3832 24 3319 34 2334 23 2753 17 2546
1279 -0.11558933701129573 2.7307192382993475 5.4314987273565034 18 13 10 0.92171656617207953 33 3091 27 3421 13 3819 28 2961 12 3546 10 3315 11 3247 9 3461 8 3044 18 2565 2 2883 3 3070 19 2163 4 2430 1 2392 5 2067
1277 0.4949076659488692 2.6708570842451755 5.5176985184742087 14 10 8 2.1774492250420807 31 3043 47 2507 46 2457
1275 -1.1369562798795234 1.9837084676560905 5.2277512359317209 111 96 88 1.0393424586821125 31 3160 27 3381 32 2463
1274 0.059905536255576972 2.1988839794882815 5.319119040832561 78 37 22 0.62967066586113973 31 2993 27 3364 47 2467 32 2341 26 3016 26 3394 46 2296 48 2428 25 3279 15 3292
1273 0.036822177512649032 2.1797278443087276 5.2826100884648559 78 37 22 1.1633146395805718 31 3161 27 3363 48 2672 28 3157 49 2523
1272 -0.83710857123242044 1.8840619863631778 5.1774155525935468 72 67 58 1.5840169922851277 31 3150 27 3352 32 2455 26 3225 46 2266 33 2788 25 3239 15 3091 24 2918 43 1872 23 2197 17 1965 8 2371
1271 0.053251928966923531 2.116682391718125 5.2752896424085165 52 37 32 1.8051127333734751 30 3134 27 3351 26 3236 48 2658 25 3270 14 3454 15 3287 13 3488 28 2834 16 3199 36 2367 29 2971 49 2511 12 3014 10 2895 11 2971 9 3300 17 2531 8 2896 22 2288 37 1979 18 2372 21 2149 38 1994 40 1704
1270 0.99329428707063083 2.2753781388948302 5.4351943105496749 126 119 97 0.39598482753918668 31 2983 27 3339 47 2471
1269 0.93005385432348664 2.1956782492239695 5.3316205024024121 124 107 91 0.43624908926953815 31 2976 27 3334 13 3446
1268 -0.078766562240412938 1.8188888815401396 5.1837757088989864 142 130 121 0.37520315431980988 31 2949 27 3327 47 2586 32 2447 26 3372 46 2405 14 3436
1267 -1.8567364100813739 1.2951541956224921 4.8947656721173454 111 107 100 0.65846316977221531 31 3123 27 3318 47 2563 32 2268 26 3186 46 2375 14 3202
1265 0.91831736398451058 1.9475687948421792 5.246977914831751 128 111 85 1.0786574055377205 31 3138 27 3314 13 3416 28 3102 29 3219 12 3363 11 2882
1264 0.23982149574132219 1.6937871015030992 5.1288551151756376 32 17 13 0.1236126491260072 30 3074 27 3307 28 3096 10 3094
1263 0.23913483840667527 1.6938011587894748 5.1294829821965315 32 17 13 0.27879142063985107 30 3075 27 3306 14 3426 13 3727 28 3095 29 2871 12 3380 10 3093 11 2915 2 2514
1262 0.15233131310506831 1.6676718876228749 5.1189899299402226 16 10 7 0.23219795805011892 30 2735 27 3305 32 2291 48 2311 45 2299 28 2742 44 2231 35 2529 36 2201 29 2870 42 1845 37 1937 41 1595 38 1952 40 1559
1261 0.18888018340350118 1.4943511048335496 5.0679241428336752 56 28 20 0.83734950252639484 30 3052 27 3298 13 3709 28 2711 29 2841 12 3359 11 3175 1 2117
1259 0.04302450133432778 1.308584905877983 4.9834035123272029 70 35 24 1.4472557250181575 31 2895 27 3284 47 2355 32 2259 26 3173 48 2555 30 3040 25 3180 14 3133 15 3016 13 3381 16 3151 49 2692 10 2468 11 2407 9 3013 17 2464 8 2829 18 2478 2 1332 3 1851
1258 0.66350720319927059 1.4334438401566612 5.1034657988494789 29 30 28 0.99962871696369249 31 2625 27 3283 47 2115 32 2429 26 3345 14 3410
1257 -0.18008223686395039 1.2048739741751457 4.9613597598779267 214 228 236 1.2506533398171635 30 3034 27 3279 28 3307 29 2805 29 3391 49 2669 41 1559 48 1783
1256 -0.35386267302998808 1.1718342577674909 5.1958692892824407 55 54 43 0.8470671114463405 31 2892 27 3278 47 2086 32 2255 33 2731 26 3335 46 1963 45 2010 25 3160 14 3575 15 3395 13 3906 28 3066 24 3065 34 2081 44 1957 35 2252 16 2896 16 3281 23 2647 36 2157 12 3695 10 3248 11 3326 9 3378 17 2435 8 2795 22 2233 18 2455 2 2839 3 3007 7 2331 19 2082 4 2269 6 1985 1 2353 5 1912
1255 1.0468073346343192 1.2178713914263273 5.1126199626189077 169 184 187 0.28098247076604493 31 2600 27 3255 47 2087 13 3662 28 3036 29 3155
1254 0.60763626751629585 0.95083138890680252 5.3905427564064938 205 214 229 0.80942050469763427 31 2575 27 3246 26 3153 46 1035 14 3553 28 3284
1253 0.022582750184629401 0.69866815136582472 6.3397214002400393 229 110 81 0.31464643866420655 31 2872 27 3238 26 3137 32 2229
1252 0.61216284784359365 0.81509269479298274 5.6616609306120909 203 73 56 0.82227008731202811 31 2568 27 3236 32 1932 28 3025
1251 -1.8680914992979962 2.3741614887225313 5.3563453701530079 146 138 132 0.73705368059450427 31 2839 27 3210 32 1865 26 3107 46 2138 45 1909
1250 -1.5448561946868349 2.4661165264395088 5.3971171639767421 108 97 84 0.66412371704987383 31 2841 27 3205 47 2296
1249 -1.5238147444487713 2.3540477036382863 5.2813423748704817 73 70 64 0.042614332913675113 31 2826 27 3187
1248 -1.461208067902277 2.2864875651938403 5.266058610412486 97 88 79 0.405960712537416 31 2812 27 3173 14 2994
1247 -1.5297673553712705 2.2317154126820355 5.2467711538711219 86 76 72 0.68968892088716172 31 2800 27 3166 32 2145 33 2607 26 3065 34 1944 44 2093 35 2364 43 1899 36 2058 23 2512 42 1712 17 2297 22 2084 37 1782 41 1491 21 1799 18 2311 19 1662 20 1232
1246 -1.5096230097749985 2.2297158958688699 5.5194890299335837 110 100 89 0.35684282141567725 27 3154 47 2256
1245 -1.8672986890417465 2.0455370528185752 5.2517392407467947 25 21 20 0.45629354257833443 30 2920 31 2433 27 3149 32 1300 28 3243
1244 0.38191924764634361 2.7328917298564641 5.4295041688712873 21 16 11 0.36676782292348231 31 2828 27 3145 48 2739
1243 0.37933895576840448 2.6915670405579801 5.4121503198795455 21 19 15 1.1305270682706732 30 2931 27 3136 14 3309 13 3549 28 2917 29 3321 12 3498 11 2619 2 2220 3 2770 9 2854 1 1803
1241 -0.73230185267126358 2.1753444712551007 5.2610503550671295 96 91 81 0.2685967838743879 30 2877 27 3103 29 3033 49 2538
1240 1.1637675229042528 2.7712335354331774 5.6324497361703285 53 47 45 0.446654849630235 31 3036 27 3100 28 2406
1239 -2.0808151768383865 1.7252461509136467 5.1801634354547641 27 24 20 0.28808707410676665 31 2726 27 3089 32 2061 26 2975 14 3281 13 3592 28 2930 12 3822
1238 -0.55985652176232992 2.1329367682962039 5.2458310950413658 60 35 31 0.78306449779696352 31 3002 27 3083 26 3024 25 3037 14 2851 15 3125 13 2452 10 948
1237 -1.4160630932283347 1.8791158164938697 5.1820295104600085 53 48 43 0.055540258282839594 31 2738 27 3078
1236 0.20616376382664606 2.3155834401012898 5.4054692066953152 142 131 122 0.47595025385182121 31 3007 27 3071 47 2479 32 2474 46 2428 13 3501
1234 -0.74341379204955771 2.0084072061553138 5.1942216991529682 99 93 84 0.29372494648582065 31 2742 27 3065 47 2205 33 2566 48 2401 45 2119 34 1924 24 2939
1233 -1.6395355198413122 1.7277840523619044 4.949065199416137 99 92 82 0.15344189345897938 31 2711 27 3064 47 2411
1229 0.63777050409723357 2.3361479698889953 5.4703917838793341 131 116 109 0.12285725252305285 31 3003 27 3045
1228 -0.49696871749498495 1.8372476670775129 5.1777324647195035 158 145 134 0.14233010794171477 31 2695 27 3020 47 2170
1227 0.52396420212867201 2.0752100045828752 5.2837186108040708 59 38 33 0.8752545664109348 30 2799 27 3014 14 3194 11 2508
1226 -1.2724296442676888 1.5778303039210875 5.0336274973837902 14 14 13 0.36462493485078251 31 2682 27 3011 26 2926 25 2950 14 3215 15 3053 24 2868 23 2122
1225 -1.9789466125724748 1.326784727091201 4.9945577486458967 141 127 113 0.47680237322956159 31 2653 27 2988 32 1990
1224 -1.3978785638731523 1.4633157653432554 5.0145138596385275 13 9 7 0.30440346325604223 31 2267 27 2986 46 363 28 2810
1223 -0.97231621254440603 1.5350252636855926 5.0285629098688487 30 21 16 1.235188328947576 31 2669 27 2976 13 3480
1222 -1.8997876192727827 1.2430600200100554 4.8855671393947775 110 99 84 0.45135224787166944 31 2641 27 2963 47 2345 32 1975 26 2888 46 1957 45 2004 25 2484 28 3127
1221 0.77477671955097716 1.7527611587373406 5.1859025259957328 17 10 6 0.25633108376380498 31 2668 27 2951 32 2022 26 2911
1220 -1.557846907798546 1.1602802069342313 4.8252987571180368 108 111 113 0.36308830817833765 31 2191 27 2949 13 3763 11 3000 2 2574 1 2415
1219 -0.77955215666261102 1.3195905628817957 5.1453869333597471 95 66 52 0.067361251001569991 31 2216 27 2942 47 1727
1218 0.77378681731829102 1.6681671028899003 5.1587543057075855 21 10 7 0.33290117572985767 30 3066 31 2654 27 2941 47 2406 32 2285 26 2902 48 2592 14 3146 13 3386 28 2705 29 3189 49 2727 12 3676 11 2848 2 2454
1217 -0.48384584701951783 1.3438195203837755 5.0090466458241876 102 105 104 0.052369190080680195 31 2631 27 2938 2 2524
1215 -0.74217364143567599 1.2434328696690977 5.1730786091931309 67 68 65 0.37078115589505711 31 2623 27 2928 32 1588 33 1416 26 2415 46 1601 45 1155 25 2466 14 2662 15 2555 13 3418 28 2719 12 2114 10 2476 11 2497 9 1989 8 1682 2 2121 3 1785 7 477 19 1201 4 503 1 1802 5 464
1214 0.2649753330841057 1.3077637316737374 4.9890972171376644 24 13 11 0.55245728697382346 31 2183 27 2918 47 1161
1210 0.12354768257367767 0.71260336742781649 6.1746353081514265 244 120 95 0.79258901439152507 31 2571 27 2869 32 2225 28 2001 29 3149
1208 -1.8454470675548564 2.5047781270873695 5.4036220515834197 28 26 26 0.94005932478180232 31 2074 27 2848 26 2265 33 1061 46 879
1207 -1.7308478764144102 2.5224461567014251 5.3539055695651285 29 21 20 0.4188282755568058 31 2072 27 2847 46 883 48 1708
1206 -1.1587377552773579 2.5830309511693246 5.2604944812070622 144 87 73 0.20641482945247461 30 2587 27 2838 47 2310 32 1886 26 2780 46 2163 48 2512 45 2206 28 2588 44 2154 35 2148 36 1836 42 1554 37 1262 40 970
1205 -1.1588026790592003 2.5829362844335821 5.2602932497048025 144 87 73 0.22407299610401171 30 2588 27 2837 47 2309 32 1885 26 2779 46 2162 48 2513 45 2205 28 2587 44 2153 35 2147 36 1835 42 1553 37 1261 38 1227 40 969
1204 -1.4050311792088774 2.4756523145019749 5.3816497360076916 20 19 15 0.38508963843528643 31 2051 27 2828 32 1871 48 1681 13 2652
1203 -1.3433011070700769 2.4651589606861255 5.3732132138824635 13 11 8 0.34221255440726667 31 2529 27 2825 32 1870 26 2759 13 3274 28 2573 11 2207
1202 -1.8504227527746782 2.2300961101715409 5.2504975105740987 102 92 81 1.2407929707802414 31 2497 27 2818 47 2253 32 1379 26 2217 48 2476 29 3354 49 2583
1201 1.0378152644572167 3.1340539153287823 5.5123724789490316 17 14 12 0.27911516800224512 31 2548 27 2814 28 2499 30 2090 29 2177 12 3095
1200 -1.4122902835660511 2.337328377745207 5.3265452429764801 49 44 42 0.30128375961939774 31 2506 27 2812 32 1850 33 2360 26 3083 46 1863
1197 -2.0942398620171452 2.018829809532547 5.3688455927521437 27 22 20 0.33953880740132997 30 2032 27 2778 28 2554
1196 -1.9311233454694974 2.0359221481349117 5.2724456605660412 148 138 128 0.68884060854689366 31 1926 27 2776 13 1638
1195 -2.0892728983114668 1.9586835307132595 5.3401868167207702 161 148 139 0.0980934482951622 30 2508 27 2768 28 2538
1193 -1.4827228065028462 2.0764914354505519 5.1926486761798767 33 28 23 0.13565483676492562 30 2495 31 2422 27 2760 48 2043
1192 0.39527520755926943 2.657544308071849 5.4601949409547466 22 15 10 0.62803116602632503 31 2496 27 2756 47 2015 48 919
1191 -1.8908999519881311 1.9426799377050001 5.2268429879912999 167 154 151 0.11581072456934065 31 2398 27 2751 47 1867 32 1748 33 2254
1188 -0.82272349832813718 2.211772164059925 5.2833447084115415 118 103 89 0.786545336350014 31 2428 27 2736 47 2235 32 1798 26 2690 48 2446 49 2546
1187 -1.1931483461830898 1.8072281994847876 4.0103532653005889 23 14 13 2.5923241140828912 31 2333 27 2717
1186 -0.80124851160208277 2.1488822954588493 5.2497318759368721 41 33 29 0.68426222358995781 30 2474 27 2716 26 2663 25 2704 14 2888 15 2777 13 3144 28 2455 24 2607 16 2689 23 2244 36 1773 49 1659 9 2775 17 2020 22 1790 37 1183 41 1254 21 1843 3 2490
1185 -0.80167191909661983 2.1480180372567097 5.2487965009160371 41 33 29 0.71648079548224941 30 2473 27 2715 26 2662 48 727 25 2703 14 2889 15 2776 13 3145 28 2456 24 2606 16 2690 23 2243 36 1772 49 1658 17 2019 22 1789 37 1182 41 1253 40 914 38 1525
1184 -1.3796306606921378 1.9722253886173504 5.2226839128642304 127 115 105 0.5699325623872592 31 2382 27 2710 47 1868 48 2006 30 2458 28 1855
1183 -0.45248720525207609 2.1986352497289166 5.2959268809112707 138 125 118 1.1189158858869055 31 2403 27 2700 47 1911 14 2292 43 1649
1182 -0.98312715436659648 2.0396596913037279 5.1936880825951821 25 22 20 0.11450819106932694 33 1745 27 2699 32 1260 44 707
1181 1.0456796385996785 2.616476128054404 5.5297137250899384 41 31 29 0.8501131962407914 31 2447 27 2687 28 1747 30 2476
1180 0.15487025150211123 2.3260553472425545 5.409021706307918 143 133 126 0.27420993567996504 31 2409 27 2679 47 1945
1179 -0.83450681735134713 2.0072356223474279 5.2193761256822695 23 21 17 0.15273875972377687 31 2363 27 2675 13 3121 11 2644 1 1890
1178 -0.88338289225078193 1.9955931112943668 5.2372124058849812 25 20 17 1.0599855074482307 30 1852 27 2670 26 2623 32 1237 25 2661 14 2842 13 3120
1177 -0.048846834709764989 2.2221638970848416 5.34056514865095 54 46 40 0.180061981589105 31 2389 27 2664 47 1917 32 1785 33 2315 26 2646 46 1812 45 1870 25 2730 14 2827 34 1687 44 1828 35 2120 43 1679 23 2299 36 1827 42 1521
1176 -1.1801688668164576 1.8848255509406941 5.1746555477067577 174 157 143 0.35600493404365241 31 2356 27 2660 47 1854 14 2843
1175 -2.0678631970917931 1.626167423138833 5.1580362111261282 96 83 74 1.4834621854962771 33 2189 27 2656 25 2032 28 2453 24 873 42 1353 12 2657
1173 -1.659659065013779 1.6690104992460622 4.9109477802954977 95 88 78 1.0917673987665786 31 2692 27 2649 47 2142 32 2036 48 2323 14 1260 49 2431
1172 -0.013300019638116098 2.108365743237234 5.2780759804077819 60 36 32 1.0949752305522129 30 2835 27 2641 48 2410 49 2785
1171 -1.6310905049819959 1.6239527663128197 4.8817133229966903 26 23 18 1.0236664904542945 31 2314 27 2639 47 1787 32 2028 33 2512 26 2944 46 2005 48 1287 30 2379 14 3264 15 3069 24 2871 35 2284 23 2428 49 2028 16 3164 9 3259
1169 -0.82635941035001492 1.8066797766791427 5.099097411841341 124 112 106 1.8788710494414347 30 2383 31 2332 27 2624 48 1945 49 1518
1168 0.58258260271613616 2.2026699064993749 5.3583332422814216 145 134 119 0.064265480890032853 31 2358 27 2621 47 1898
1166 -1.8616718933430945 1.4203620264152583 4.9343079194593304 110 100 92 1.821737999402512 31 1609 27 2603 14 2798 44 286
1163 -1.755131520216453 1.4071254394620274 4.9169210729391786 154 142 134 0.52667001826205473 31 2257 27 2592 47 1738 26 1926 46 1628 13 2427 28 2343 30 2753 12 3156
1160 -1.1566536098250844 1.512850425597867 5.0662282663764229 113 72 57 0.57084738195914086 31 2273 27 2570 26 2507 48 1247
1159 -1.0235132698168159 1.5155821480347911 5.0270631450114172 25 24 22 0.19493722464083535 31 2268 27 2565 32 1663 26 2505
1158 -1.667178297819665 1.3298185246213707 4.7860948362702338 119 105 85 0.35614709112309034 33 2126 27 2564 47 2089 32 1616 26 2483 46 1965 45 2011 25 2510 14 2165 15 2028 24 1803 34 1487 44 1617 35 1306 43 1442 16 835 23 502 36 1087 42 1300 22 1066 37 937 41 726
1156 -1.0891673538079587 1.4610983279514558 5.0063584807704542 121 108 101 0.20923287333523896 31 2250 27 2555 32 2003 26 2496 46 1991 14 2105
1155 -1.8848139078572903 1.2228729266398113 4.8740915638648428 35 29 25 0.24981661660465904 31 2637 27 2537 32 1595 33 2109 26 2458 46 1586 47 2077 25 2480 28 2292 44 1608 35 1278 34 1462
1154 0.93543457577012856 1.9210093724953388 5.2400538235018308 40 28 19 0.35942638477639383 30 2331 31 2300 27 2534 47 1848 13 2899 29 1792
1153 -0.76959945988204026 1.4504212075254612 5.0942175722629806 86 64 51 0.1073050110761498 31 1553 27 2521 13 2976
1151 1.0917244001770303 1.8854867749881319 5.2517070602633451 109 93 75 0.014358682457242639 31 2292 27 2514
1150 -1.9718306720351164 1.1297989268820272 4.858362395891497 74 75 79 0.270065824283926 33 1360 27 2512 32 910 26 1757
1149 -1.7718301114613253 1.1542235488098225 4.7572264445065766 111 111 116 0.38884630394350933 31 2192 33 1372 27 2508 47 1092 32 916 26 2431 45 161 46 1025 25 1755 15 1897 14 2065 13 3053 28 2242 34 117 34 807 44 147 12 3096
1148 -1.3210671597430903 1.2803990701929182 5.1576595544238568 161 121 103 2.0377324016867946 31 1521 27 2506 32 973 26 2441 33 2122 45 1166 25 772 33 370 14 3161 15 3017 24 653 24 2821 34 1485 44 1630 43 1455 16 708 23 487 36 288 42 1310 10 2856 11 3209 9 2001 9 2982 22 281 37 1699 18 306 41 1123 21 234 21 2225 3 1789 7 239 19 1118 38 221 38 1688 4 346 40 1072 6 231
1147 -0.7746323752655957 1.3875406794578655 5.1176671287476276 97 69 58 0.39049610879844937 31 1533 27 2503 47 1199 13 2966 28 1443 12 1023
1145 0.99085451277588477 1.7488747024523972 5.2190041378231893 146 137 127 0.20072099211831312 31 2256 27 2489 47 2151 48 1907
1142 -1.7025134518528633 1.0746258401721851 4.7584197179407246 94 97 98 0.37197692839299684 31 2169 27 2479 47 1660 32 1557 26 2411 46 998 48 1747 25 2443 15 1826 24 378 35 134
1141 -0.50492326073564875 1.359405358200277 4.9996710338945114 128 140 141 0.36871908721368557 31 2214 27 2478 26 2442 48 1184 25 2506 23 2117 36 1169 9 2117 17 1879 37 1030 41 220 38 1034 40 753
1138 -0.78623414977150419 1.2535033976514816 5.1738165170579844 86 51 38 0.79388655684024645 31 1479 27 2466 47 1162 32 1969 26 2877 25 2917 14 3143 13 3426 28 2170 30 1479 29 1661 49 275 48 1169 12 2929 15 1812 11 2930
1137 0.98711055856228103 1.6367962462275747 5.1366572647223538 126 111 89 0.11838062858036551 31 2239 27 2462 47 1788
1134 -2.005666691726137 0.92296905140376406 4.7846988115128894 66 65 56 2.0544325704462092 33 2070 27 2450 28 2191
1133 -0.53482842273506803 1.2281162959463667 5.1301742436665148 54 57 59 0.83388179109316685 31 2188 27 2439 29 3177
1131 -0.10656546344263677 1.1322510569987616 5.2286600711324045 231 249 253 0.90031811249519089 31 1406 27 2401 14 2579 13 3353 10 2397 11 2362 8 2312 2 2436 4 1865 1 2333 5 1227
1130 -1.7530232816773399 0.76826653041105408 4.7981591654629643 92 93 95 1.0363820519154865 31 1302 27 2399 26 1575 25 313 14 1774 13 2924 28 1276 11 2574
1128 0.61526902643307269 1.036757886424585 5.3142308767477822 231 241 245 0.31237000518460711 30 116 27 2345 48 1113 13 2697 28 1149 12 2719
541 0.76762985426282671 2.5886030761041035 5.4680918986497575 63 43 35 1.2820039668867957 30 2484 31 2787 27 3385 47 2499 46 2335 48 2139 14 3475 13 3499 28 2400 49 2209 10 3167 11 2967
5628 -0.86938179025729534 1.2644230672517056 5.1642780471112681 74 37 31 0.072824114612766111 45 1164 34 884 35 1340
540 0.057829981259148247 2.4268928849164326 5.3763411064106608 17 8 7 1.2856920161802019 30 2891 31 2785 27 3104 26 3268 48 2104 46 1880 14 3487 28 2882 44 2145 43 1952 29 3035 31 3025 49 2566 42 1755 41 1661 40 1626
5627 0.37196586298698386 1.160710174986201 5.1975333343081642 245 253 250 0.23294866852701304 24 1798 34 859 44 219
5626 -0.48672520815432752 1.2122777798768776 5.1737912172175236 253 255 254 0.38455255893905416 24 1767 34 855 35 349 16 1858 23 606
538 -1.2140334206995977 2.1921475501400294 5.2374563677699628 97 91 78 0.44590148881950192 30 2911 31 2783 27 2769 47 2236 26 2699 46 2084 33 2594 45 2143 25 2728 14 2950 49 2554
5625 -0.61201866576688446 1.2196634672523672 5.1700722547666382 253 255 254 0.082177464543461171 24 1760 34 853
5624 -1.5384089642046812 1.156179966334379 4.991092007910698 27 22 20 0.20816113606291439 33 1384 34 822 44 1604 45 1651 35 1889 43 1423 36 1575 42 1280 37 1380 41 1110 21 1084 38 1356
536 -1.4903669019050696 2.099147283984907 5.2055125146962471 111 110 103 0.84398804312102549 33 2282 31 2778 27 2765 30 2502 47 2223 26 2689 26 3045 46 2079 48 2052 45 2124 25 2692 13 3233 28 1902 24 2565 34 1630 44 2077 35 2052 43 1611 16 2649 23 1777 36 1730 42 1448 17 1964 22 1305 37 1123 18 739 41 1230 21 1356 38 1127 40 865 39 434
5623 -1.6171093839899342 1.1002436802810875 4.8207657636669854 66 63 66 0.19593582472413779 24 1696 34 789 23 1399 36 1024
535 -1.968427843654831 2.0065502336320824 5.2869136271376806 109 103 101 0.74720851315382675 30 3188 31 2777 27 3141 47 2213 31 3013 48 2427 28 3242 29 3333 49 2807
5622 -1.4303222454142746 0.99582817799712831 5.1275069100814017 38 35 36 0.2760157645123853 24 1644 34 769 35 1234 44 113 43 92 23 1371 36 1018 42 792 17 1021 22 1003 37 897 18 1218 21 1055 7 1763 19 1047 38 910 40 687 20 970 6 990 39 140
534 0.85663980695861974 2.5113179331671129 5.4492983069377567 111 97 74 0.52642089684253146 30 2460 31 2774 27 3074 47 2271 32 2361 48 2475 28 1728 13 2307 29 990 49 1726
5621 -2.0081725812080031 0.99230950213870761 4.8802616862492396 45 41 40 0.098113372624838033 24 288 34 757 44 1032
532 -0.79095281089142877 2.1733436374512656 5.257011595689745 114 107 95 0.99796796147963218 30 2881 33 2587 31 2769 27 3107 47 2226 32 2123 26 3035 46 2293 48 2437 45 2353 25 3044 14 3287 15 3131 28 2913 13 3565 24 2958 34 1947 44 2280 35 2371 43 1901 29 3036 49 2537 11 3033
531 -1.7478949417710523 1.9422815874951573 5.1008340773405871 107 96 86 0.87185933437881036 30 3342 31 2757 48 2651 47 2441
5617 -0.37857265344247537 2.4841105024423169 5.3710563892628942 10 8 6 0.41932803243326494 24 1369 34 636
528 -1.799029155547397 1.8995739685142368 5.1459545012040087 54 45 45 0.2377565800130271 30 2875 31 2751 47 2189 32 2092 46 2060 29 3042 49 2509 48 2390
527 -0.49381469103256276 2.0582206254538549 5.2323373812398506 9 5 3 0.10466619072558514 30 2849 31 2746
5614 -1.4204848018365763 2.2793459676190069 5.3114883581092354 145 135 130 0.30402362809985545 32 630 34 547 36 741
5613 -1.142802132844386 2.1354741475938188 4.5713432966862984 93 88 80 2.1572453238666083 33 889 34 530
525 0.098013487938130292 2.0997771038145663 5.2530656793493282 55 30 26 0.26714927031127061 30 2822 31 2735 48 2403 49 2507
524 1.0303928813764087 2.1844846696103462 5.3852512707541065 147 136 122 0.44741309213965852 30 2381 31 2719 27 3009 28 2264
5611 0.14713689846733824 2.0394306505119828 5.6573762354250174 28 13 10 1.2921414140149534 31 757 34 507
523 0.50863301750425138 2.0713552777297441 5.2669723392173573 58 32 28 0.29946402280511319 30 2800 31 2714 27 3015 32 2327 26 2968 15 3105 28 2284 16 3050
5610 -0.97850385410802831 1.8431766601609052 5.1691365225829884 101 97 93 0.25656455200237183 24 1064 46 572 34 411 35 1541 44 1260 43 1114 42 997
522 0.79356541654085055 2.0922933459708668 5.313158955928456 22 10 7 0.37888954262248892 30 2796 31 2709 27 3003 47 2448 32 2325 26 2958 48 2392 14 3185 13 3440 28 2779 11 2917 2 2508
5609 -1.1882197717036023 1.6519717503473195 5.0116443087637244 100 96 83 0.69780444168353828 31 660 34 369 29 798
5608 -0.78571503159410738 1.5742833667157594 5.0284053896069247 180 136 115 0.75152379529089541 33 633 34 347 36 1234 37 1067
520 0.90899340190506783 2.0709177728159944 5.3095806663064105 38 21 14 0.64048774530648067 30 2789 31 2700 27 3325 47 2445 48 2640 14 3174 13 3431 28 3115 29 3237 49 2761 11 2448
5607 -0.8279787647573984 1.4643544561311639 5.0887147441409546 177 128 110 0.16173387180175813 45 443 34 292 44 430 43 334
519 -1.3535800638728692 1.7315110211084876 5.0710463430707806 108 107 100 0.02943945349075772 33 2524 31 2698
5606 0.56072819516669525 1.1988332591437709 9.6663252823781054 39 39 37 0.37823554422020389 32 256 34 285
518 -1.5455994313000969 1.6825978443713678 5.0114671175420646 91 84 78 0.81530994558354042 33 2770 31 2693 47 2407 32 2037 46 2240 48 2331 45 2298 25 2957 16 2141 3 1914
5605 -0.37905904094879528 1.3051470144131556 5.1507133451142684 174 184 187 0.2500197110496124 24 1850 34 222 44 1137 35 1383 43 988
5604 -0.98384289079924114 1.2559714524751244 5.1808984026469886 254 215 188 0.12043951364266685 24 1749 34 185 23 1494
516 0.07505965013904084 1.7964885653891958 5.1754936340700706 26 13 10 0.9319377794308813 30 2764 31 2686 47 2417 32 2443 33 2920 26 3203 46 2401 45 2444 25 3383 15 3255 28 2770 24 3273 34 2268 44 2383 35 2813 45 2545 43 2178 16 3351 23 2848 36 2346 42 1966 42 2045 37 2074 41 1731 38 2087 40 1686
5603 -1.1861411157257691 1.2695732314794752 5.171393582329598 242 178 162 0.18586893583945718 24 1745 34 178 23 1479 36 295 37 243 17 1151 4 1296 7 312
515 -0.76593740282517908 1.6738322549220319 5.0688244856936855 85 79 72 0.5564479385285318 33 2520 31 2685 27 3000 26 2930 25 2953 14 2768 13 3038 28 2307 35 2309 44 2016 29 2922 12 2362 37 1083
5602 -1.3926198427195595 0.97370234074339335 5.1810912265235274 56 57 55 0.31410851493888553 24 1631 34 74 44 111 35 120 34 766 43 89 36 96
10785 -0.9482951710718901 1.0501596429093936 5.3789497623884239 236 187 167 0.20639420458912972 25 1707 15 1688 24 365 35 271 16 1731 23 1428 9 1721 8 1442 22 181 18 177 2 1317 3 1488 7 1238 4 1129 1 1217 5 1009 19 1113 6 1087
512 -1.9873525659293483 1.4611301187143271 5.0630105738714866 46 42 38 0.33703807082410508 31 2677 27 3022 26 2525 30 3109
10783 -1.6243532328501094 0.64436887139379417 5.3871132627204066 195 181 186 0.25813615813500113 40 1727 39 1841
510 -1.327586273758907 1.480570481150175 5.0025736587032092 66 66 61 0.45718242586698415 30 2318 31 2665 27 2579 32 2009 33 2503 26 2912 45 2043 25 2543 15 2643 14 2766 24 2472 34 1849 44 1990 35 1952 23 1578 16 2038 17 1289
5597 -1.2587082369116758 2.1591157721052054 5.2389447497281596 120 110 106 0.51272615183893755 33 2817 25 3278 24 3135 47 2470 32 2347 26 3266 46 2292 31 3020 27 3406 30 3182 48 2685 45 2351 34 2155 44 2274 35 2557 43 2068 16 3020 16 3021 36 2215 49 2814 42 1870 22 2091 37 1785 41 1489
10782 -0.75103536046146002 1.2183222845711268 5.8331564996567895 157 159 159 3.3722560231424499 35 1927 39 1440
509 -1.9525714903602498 1.3840034289827359 5.0113845957599112 149 140 134 0.58418019268627697 30 2760 31 2664 27 3007 47 2112 32 1640 13 3802 29 2923
5596 -1.7830281115999513 1.0776733783682975 4.7904490080338498 131 127 133 0.30677209068194411 31 1427 27 2484 47 1070 32 880 26 2413 25 1722 14 2709 15 2565 13 3021 28 2219 24 1683 33 1334 46 1007 12 3485
10781 -1.2917041468612389 1.5949313968119223 5.2105007611303886 111 75 54 3.1483464340332592 42 377 39 888
508 -1.063690984417083 1.4781119801268221 5.0216511842521561 25 26 23 0.67275507438549809 30 2739 33 2759 31 2662 27 2972 47 2387 32 2281 46 2227 48 2284 45 2285 25 3200 28 2791 34 2108 44 2216 35 2271 43 1810 29 2484 49 2394 42 1628
5595 -0.49888021865569471 1.7237859848259416 5.1227599523631966 34 20 17 0.44425766172597664 15 3592 25 3536 33 3027 27 3654 32 2561 26 3503 28 3507 24 3406 34 2398 35 2798 16 3458 23 2947
10780 -1.683033979126537 1.2204044752749033 4.736075661673059 86 83 72 0.10037719424498485 40 693 39 779
507 -1.7933378361588628 1.3798590868427574 4.9335226440617772 41 38 33 0.31577327567369567 30 2750 31 2659 27 2995 47 2104 32 1999 26 2909 46 1971 48 2571 28 2827 29 2904 49 2707
5594 -0.43693614487539606 2.0334308476085758 5.220849474959639 32 16 13 1.0984690406718842 15 3280 26 3235 33 2943 27 3359 32 2462 13 3510 14 3239 24 3134 34 2287 35 2689 23 2704 36 2225 37 1959 41 1617 40 1434
10779 -0.97879137094277158 1.822717573025268 5.1632119279114779 56 53 47 0.12552931184159355 40 831 39 383
506 1.044519799495651 1.7165475990221049 5.2311963364590488 27 22 18 0.17057971559344026 30 2715 31 2655 28 2698 29 2847
5593 -1.5516506396920458 1.229086225340204 4.9896391747703595 32 28 25 0.27838835123712452 26 718 25 1787 15 756 24 563 46 188 45 215 35 302 43 155 16 1827 23 389 36 238 42 138 17 250 17 1110 8 1554 9 683 22 194 18 166 41 133 21 164 7 1207 19 1080 38 930 20 1005 6 1014
10778 -1.6050520662168501 1.1074723905646231 4.9005292419694291 23 23 22 1.9952667262762966 41 106 39 154 37 139 43 109 36 139 42 103
505 -2.1673012438850341 1.3730007517144751 4.1288612162285183 161 144 134 0.47526690561795626 30 3079 31 2652
5592 -0.471299035980345 2.3092928867020079 5.3541629790780183 141 128 114 1.6231050627717654 31 1930 32 1823 46 1835 24 2215 31 1939 46 1848
10777 -1.6207409152275385 1.3828644936700591 4.9527245323966245 89 82 75 1.1473925963040612 22 1984 18 1953 19 2058 20 1483 39 1154 16 2917 9 3009 8 2569 24 1826 34 913 44 1129 43 1468 23 2075 42 1315 17 1812 41 1125 40 1073
504 0.564836070886926 1.6434587068625697 5.1307435560795804 10 6 3 0.61017664424007456 30 2714 31 2651 27 2946 33 2516 28 2718 34 2121 24 3107 17 2683 8 2692
5591 -1.3247167207703017 1.8098365722687442 4.9708976669169793 0 0 0 0.68007889166239499 32 2886 47 3000
10776 -1.4317088531154112 0.9167463736010425 5.1511888252720883 82 85 85 1.915144349254666 21 1613 38 894 41 63 40 66 20 1757 39 101 44 1041 35 1859 43 898 23 2382 24 2776 36 1562 42 1260 41 1378
503 -0.12605182394065179 1.5419363653499556 5.0547537899167692 12 5 3 0.66294522089545005 30 3067 33 2507 31 2649 27 3303 32 2005 26 2901 46 2235 45 2297 25 2945 14 3422 15 3245 13 3733 28 3091 24 2886 34 1871 44 2007 35 1998 43 1064 16 2967 23 2466 36 1258 29 3191 42 396 10 3091 11 3339 12 3896 9 3248 17 2477 8 2845 22 2067 37 1483 2 2854 21 2086 38 1473 4 2314
10775 -1.0800856016258522 2.47795795585529 5.3071476777694429 14 11 9 1.3762635664816325 40 1938 39 2029
502 0.8078627903659461 1.590421040443267 5.1114635841728884 108 92 74 0.56909447072299213 30 2258 31 2642 27 2460 48 2294 47 2399 14 1795 29 2396 49 2402
5589 -0.9026420840551721 1.4400206403257898 5.1107803629974686 161 106 88 1.3958306221594949 45 2725 24 3611 34 2625 44 2658 43 2433 17 2970
10774 -1.8091956581772024 0.66349182441995236 4.9807531313775426 198 189 196 0.19955142667813516 41 1906 39 2012 42 2201
501 -1.7406374689131023 1.2589997437569633 4.8042843354488234 91 84 72 0.75278139501610652 30 2705 31 2639 27 2539 47 2078 46 1959 28 2794 29 3200
5588 0.30843675470264859 2.7850161150326334 5.9003662899054907 0 0 0 2.0985561305205298 30 3645 31 3527
10773 0.57546567351475464 0.82076172566524286 5.2492220106334466 5 4 3 0.50497137541993109 40 1799 39 1856
500 -1.7240146849680169 1.2428050807372095 4.7882084130166627 31 29 24 0.32304582431394624 30 2701 33 2115 31 2635 27 2958 32 1598 32 1972 26 2885 28 2788
5587 -1.1434644942114902 2.5742957190670581 5.270891015601026 165 138 120 0.17107755066739358 25 3760 24 3591 23 3134
10772 0.59758153885510401 1.9948578277848803 5.2528477948006085 4 1 2 0.0064065728295114137 40 1706 39 1816
499 0.88670569697239354 1.5135231784925225 5.0811245133090512 96 78 58 0.74125576608612664 30 2680 31 2633 27 2924 47 2389 48 2282 13 2751 28 2670 29 2818 12 1906 11 1514
10771 -0.84154703088376481 1.5773588071970435 5.0493247649302448 110 72 54 0.94870000831243995 40 1813 39 1775
498 1.0437605763181581 1.5056313510053296 5.0870652362256124 85 72 51 0.55806513349134634 30 2676 31 2629 27 2921 28 2662 29 2812 12 1885
5585 -1.3032338605948444 1.5225156804257274 5.0298557641967658 28 25 25 1.2945752353357811 45 2659 24 3514 34 2552 44 2592 35 2946
10770 -1.8336733650230446 0.87033832085862628 4.8074468219934428 185 192 188 0.31006083821372471 40 1637 39 1746
497 -1.8547425636629051 1.0871518884148057 4.8148128742386129 13 12 12 0.19028942661811585 30 2678 31 2617 14 3167 17 1034
5584 -1.6532417458695612 0.77254021686918528 4.9364784841655087 6 7 7 0.47692701587878955 25 3673 24 3494 16 3543
496 1.0091766742238095 1.2786588682666988 5.139356887649984 32 32 32 0.29909488602987633 30 2648 31 2606 27 2903 48 2552 13 3328 28 3040 29 3164 49 2687 12 3287
5583 -1.0685849177365923 2.7745584444461979 5.2858229758063793 118 92 76 1.7855745503272871 25 3719 16 3491 38 2204
10768 0.62173561583098769 0.78091117425702727 5.2422878306305511 153 145 124 0.52000985745357275 38 1691 39 1405
495 -1.9779965687819723 0.98424629489277282 4.8494705777239782 99 95 88 0.67201989261386208 30 2663 31 2603 32 2251 33 2717 48 2525 25 2902 34 1796 24 2392
494 -2.0285346786077136 0.9773351020452391 4.8780817733845598 109 99 91 0.4666071513205366 30 3038 31 2602 47 2322 32 2249 46 1923 33 2454 48 2524 45 1963 34 1794 35 1849
5581 -1.7922105298452362 1.512850671043583 4.9541173834145598 20 18 16 1.3129438056225431 25 3691 24 3469 34 2492 35 2772 43 2236 16 3515 36 2301 17 2620 22 1990
10766 -1.1256879747585173 2.1493895830674812 5.2353322345668838 21 15 14 0.31226442582224334 40 1193 39 1276
493 -0.38717063399216661 1.0192486110222609 5.1910216780245815 116 112 93 0.85609594898841623 30 3021 31 2593 27 2907 32 854 26 1617 14 2573 13 3684 28 3051 29 3163 11 2838
5580 -1.4796246440786744 0.95053756057244176 5.0611264894266395 17 17 14 0.86336362227330898 25 3490 33 2991 24 3463 34 2358 22 2436
10765 1.1079892341801947 1.2014488732409978 5.0521371177223129 75 76 73 0.36344282087660429 20 1713 39 1200
492 -0.38180478393719042 0.94413177918796198 5.1709839059968274 68 59 51 0.27982838818838618 30 2632 31 2586 28 3045 29 3152
5579 0.10506351992341929 0.8180810410883127 6.136866185739053 250 127 92 0.20630986278084315 25 3609 24 3462 16 3538
10764 -1.5410563073302872 1.6221487841655096 5.1548194528882219 8 5 4 1.7892593131757473 41 800 39 1193
491 -0.31950859888098515 0.92205997963346709 5.1342667342141306 225 217 180 0.088527364406387629 33 2450 31 2582 32 1940
5578 -1.5603822686142761 2.7557031198052928 5.261141901297095 8 8 5 0.49001693377533845 25 3598 24 3449 34 2460 23 2869 36 2485
490 0.097386513784457576 0.70060252345903196 6.1840474355572592 31 25 21 0.30972112365958759 30 2621 33 2431 31 2570 32 1929 28 2623
5577 0.090438380439739813 2.2415538425408359 5.3339034007515052 32 18 15 0.48418148395996574 25 3568 24 3444 16 3478 23 2985
489 0.097386513784457576 0.70060252345903196 6.1840474355572592 31 25 21 0.30972112365958759 30 2622 33 2432 31 2569 32 1930 28 2624
10761 1.0489442595822562 1.5048800116533161 5.0649884595985002 64 53 40 0.091422235176486386 21 896 39 431
488 -0.072382592398706397 0.44619431191585179 6.6175910059248979 62 50 40 0.55040935965027338 30 2609 33 2043 31 2558 47 2056 48 2203 45 1633 34 1396 44 1595 43 907 29 2760
5575 -1.4305343996039595 2.4186108334919796 5.3501057574454984 58 51 45 0.99608447013466817 25 3428 24 3439 34 2437 44 2518 23 2968 36 2474 42 2066 43 2349 22 2477
10760 1.0354883520790135 1.4325929502051626 5.0894005769339872 44 42 40 0.010179880850978538 38 628 39 397
487 0.66805526881358512 0.77570360594892573 5.2386545076897786 202 187 156 0.77749822249431888 30 2601 31 2557 27 2865 32 2213 26 3138 46 1537 48 1030 47 1025 29 2240 49 1179
5574 -0.17241824624691862 1.8144953976008529 5.1708480455964398 28 16 13 0.49504684460852111 25 3544 24 3415 34 2406 33 3040 35 2808
10759 1.0747640531674654 1.1753227708537686 5.0572246644710033 30 30 28 0.24855470111897612 20 763 39 303
486 0.085462800249892543 0.35570570079830049 6.659473464310496 13 12 8 0.18876654524368325 30 2598 33 2418 31 2553 32 1907 29 2752
10758 -1.0301776493008348 1.3848181766097682 5.0023708538729394 251 237 243 0.17403605314021328 38 997 40 209 39 238
485 0.85885831063468865 3.0759189188410603 5.654486726122566 10 9 8 0.21600550479102712 30 2566 31 2546 27 2809 14 2966 13 2474 28 1885 29 2186
5572 -0.66557283518345323 1.7124220858466612 5.112389481867087 71 33 27 0.98310641502974727 15 3436 24 3405 16 3320 23 2834 23 2946 9 3255 10 3136 17 2656
10757 0.49768170894663472 0.9291522796790197 5.3505212241914979 210 222 219 3.2991659258651111 38 1413 39 190
484 -1.3995875590644997 2.4911268695169015 5.3690226684499551 48 47 41 0.77516538216259723 30 2579 31 2531 47 2010 32 1873 48 2172 13 2654 28 2585 49 2262 10 2201 11 2218 2 1869
5571 -1.5450916479371199 1.6324624704272301 5.011525288489632 15 9 6 0.87225446686107277 25 3529 24 3401 35 2785 16 3452 9 3410 8 2980 22 2448 3 3030 4 2388
482 -0.55751572933456184 2.5328679813022124 5.3986225998878208 25 10 8 0.22417384747391372 30 2062 31 2517 27 2796 48 2161 13 2558 28 1903 29 2708
5569 -0.50215432622297917 1.431677926746485 5.0085460270693591 43 42 39 1.908055975622565 25 3515 24 3393 36 2426 8 3000 9 3402 3 3022
5568 -1.6042330009365862 1.4945621360478383 4.9764977465978886 22 19 16 1.1758349660038498 15 3586 24 3389 34 2232 16 3440 23 2927 10 3285 9 3509 17 2749 8 3075 40 1750
10753 -1.5300498835987313 0.90590615924700313 4.9998001187608887 37 35 31 0.68173041467900097 40 46 43 32 39 62
480 -1.9238915309124003 2.2572902375038977 5.3216537522974292 139 128 128 0.85279092449316329 30 2563 31 2512 32 1843 33 1844 45 1853 25 1284 13 1687
5567 -0.116216234598816 1.1067038485801721 4.9637769159225318 42 24 21 1.4147950517863728 25 3623 24 3375 16 3428 17 2230
10752 -1.7695914144547877 3.229070058336545 5.0959901762139808 255 255 255 0.54552131915929136 19 2324 5 2167
479 -1.8582758269971151 2.2615791343123917 5.2775119742148568 129 117 114 0.33553525503399562 30 2967 31 2511 47 2260 46 2112
