# 3D point list with one line of data per point:
#   POINT3D_ID, X, Y, Z, R, G, B, ERROR, TRACK[] as (IMAGE_ID, POINT2D_IDX)
# Number of points: 308, mean track length: 10.709527896995708
7410 -20.019650913244735 15.338010622471389 107.94009645491691 11 17 14 1.030592469840208 18 2021 19 1596 21 634 31 1552 32 2114 14 665 15 1531 17 1990 16 580 33 2165
6979 -0.48743610042222679 -0.56205408974070026 24.557969775915904 240 84 98 0.31386229661573828 31 329 18 395 15 466 17 396 16 340 3 1390 2 1391 1 531
7927 2.5104703708616389 -12.042826688814305 26.981071828423261 107 162 160 0.18898493296989127 6 75 3 67 1 73 2 1042
6980 -34.524537822858278 -1.0883514294514272 110.89144481110382 115 122 38 0.35561115706370838 13 517 14 480 19 500 20 479 21 1457 28 1395 29 1415 30 467 31 430 18 434 4 477 5 496 32 456 15 470 17 435 16 372 1 440 33 457
7921 15.178670834474287 21.674428284805526 70.769896071509763 10 17 12 1.1705222572695082 23 868 24 1739 21 2244 27 2267 28 2188 8 2128 12 906 7 2080 29 1642 20 2227 26 2281 25 2197 13 2251 19 2300 5 1654 14 895 4 913 18 2122 17 2085 16 2363 17 2442 12 2443 30 2746 31 2907 32 2920 2 872 1 855 33 2588
6982 -34.329404299180062 0.62256072460040612 116.91392066874096 100 110 30 0.34286029158593401 13 536 14 497 19 528 20 503 21 464 29 477 30 483 31 455 18 455 4 494 5 507 32 480 15 494 17 452 16 396 3 504 1 455 33 481
6986 -35.323128411822346 1.9843857093840382 106.26692953601555 9 18 10 0.26491204739696678 19 552 28 469 18 472 17 467
7418 11.601827359747173 37.031794267020359 95.992938715204801 17 25 21 0.14572298897071873 29 2240 30 2241 31 2239 32 2256 33 2302
6987 -37.824176393457229 2.0135156214145646 81.177078226647112 61 51 48 0.15070527211190071 21 490 18 478 22 477 15 523
7935 -41.946140387639474 -26.388911038333632 77.582897339893435 93 150 130 0.54449849969163511 14 118 20 87 29 41 3 130 19 1224 15 1187 30 1143 2 1081 1 1670
6988 30.177654093681394 2.0139189273169094 85.125720121225882 18 22 18 1.1071851050313144 11 1425 19 564 18 490
7929 2.087864677185217 -11.660246419220389 26.846721343209008 92 142 124 0.2728418182973556 14 1079 3 86 2 1052
6990 -31.661369463089173 3.7087769527410694 111.05914979709475 22 46 17 0.2747483595334157 4 533 5 536 13 565 14 536 19 573 20 533 30 514 18 505 6 553 21 1499 32 520 15 539 17 499 16 443 3 538 2 508 1 494
6991 -2.6634011578941026 1.435616025116625 27.624443843865897 208 138 92 0.5010231089235303 23 508 18 506 3 640
7362 -6.3671989062122787 -2.6127763460941442 29.609445129394235 170 52 50 0.26574953623597447 18 1287 32 1322 3 1324
6995 -60.279260293961052 9.2259997864032606 109.12285198571712 41 65 41 0.25635888362517895 5 1431 14 1464 19 632 20 1516 21 548 29 561 31 562 18 564 4 1484 17 567 16 520 33 601
7879 -50.735469185257465 -12.473952891186855 93.984136380909916 71 106 54 1.094838566380445 17 2247 20 2392 16 2187
6996 1.1019969399375449 2.5632489183145837 24.593393598730007 205 53 54 0.41645413630127281 14 654 18 572 32 495 31 474
7211 29.366323991672978 6.8010478011704834 75.422098785012992 17 33 24 1.4022318161984004 19 2802 20 2722 21 2722 18 2654 22 2843 23 2773 24 2919
7002 -28.44817668455336 13.104895438116557 112.71151292536905 48 59 55 0.36166815265183816 14 636 19 677 20 649 29 604 31 601 18 605
7881 -24.192730254348245 -3.2878902040511795 96.112353255933513 0 2 0 0.93577463111334103 15 2681 17 2293 18 2620 31 2414 32 2017 16 2220 14 2778 2 2727 3 2702 1 2438 33 1415
7006 31.24401401721903 10.032194223979667 78.108262834217868 11 29 19 0.19625460969404104 21 612 22 603 18 631
7008 1.2965080762289718 4.3069188762550539 26.73290493741878 214 75 102 0.27205626359045082 7 787 18 642 3 759 2 753
7011 -59.403610539087509 16.160844506906564 102.93253164459688 27 50 24 0.29948732874974415 4 1542 5 672 13 711 19 1607 20 1571 21 647 30 667 18 657 32 1575 15 1545 17 1455 16 593 3 668 2 1463 1 1390
7831 -44.774386278065876 5.1329710216301478 75.453883418440682 100 160 198 0.32030873636641888 17 1385 18 539 31 517 16 492 33 554
7012 -25.609734583064171 16.326601714923083 99.622839673741439 47 82 52 0.51733772053742255 20 714 22 652 24 752 28 641 18 665 27 692 15 709 17 656 16 600 3 684 2 651 1 647
7825 -49.533568749974698 -5.232105923849816 88.649464637877514 191 157 64 0.91104172376757731 4 1363 17 381 32 385 16 324 21 1426 31 371 30 1363 19 436 20 416 21 386 3 1883 2 1279 33 382
7014 -30.928115291658102 15.576588615471959 92.743136608938229 74 114 76 0.31327085145839489 5 681 14 686 19 748 20 720 18 672 15 712 2 655
7018 -19.966365292356976 21.635981420201379 114.4703888786224 44 50 50 0.28153055228104307 19 783 20 752 29 712 30 713 31 705 18 700 32 719 15 747 17 690 16 636 3 709 2 679 1 669
7322 8.2693930488434209 29.031401610330157 96.939671780798363 37 43 41 0.19121583625643607 14 877 21 865 32 856 15 897 1 826
7019 24.297219680939438 11.196070951301289 60.89846370924419 86 130 70 0.63087784349092924 25 639 18 702 15 755
7839 8.2451961454134359 22.496425490078401 83.912701595585801 17 27 14 0.50770809435492514 31 1652 32 806 16 757
7020 25.533906269325431 11.853424918488329 64.078910626955775 86 130 70 0.51091467236949384 31 669 18 703 32 681
7833 26.81224449705007 8.760929675545345 74.982278085681642 18 36 26 0.46608095832260094 14 647 17 609 16 560
7022 -37.471229073317907 19.634145911981797 99.09602277536726 32 67 34 0.27778138722583945 11 736 14 728 18 709 15 759 16 647 3 714 2 694 1 677
7023 -27.443838681703703 17.887200358102564 88.457936260561141 81 127 90 0.2969828052182335 4 1584 6 752 7 765 13 791 14 734 18 716 10 752 17 1493 16 660 2 1504 1 689
7024 -64.346814217182342 24.238742073510345 118.25997577845939 12 10 11 0.25493552925877899 6 746 18 718 15 764
7394 -24.849853951963819 49.821077547547212 107.85371600011943 24 33 36 0.10269633144291521 27 1881 28 2269 29 1798 30 1799 32 1810
7027 -20.965608577395159 22.549780203906927 103.80734032958769 9 15 13 0.96820704976662797 14 752 29 743 31 734 18 730 4 748 12 1551 13 803 28 717 15 1592 17 716
7911 -2.1230438765465807 4.7459806696211047 27.034831391748579 214 49 44 0.83476636241054902 6 1568 5 1565 4 1620 16 1423 21 2140 20 2126 13 2180 19 2205 14 2093 18 2025 15 2092 17 1998 3 1547 1 1454
7028 -19.570633171165543 24.588508538809858 112.63380792630211 47 53 58 0.34053421812230439 13 806 14 753 19 815 20 782 29 744 30 754 31 738 18 732 32 752 15 788 17 725 16 675 3 730 2 718 1 703 33 777
7030 -68.637589476464839 28.392143365819688 116.93030672811967 55 68 53 0.29231768519114043 4 767 13 828 14 771 19 836 20 804 30 807 31 773 18 753 5 755 32 782 15 804 17 751 16 707 3 744
7034 -63.500897022743558 32.69576779471906 116.29169825158787 21 22 30 0.35425139580679726 4 819 5 811 6 843 12 856 13 887 14 823 19 889 20 870 21 818 22 821 18 797 32 837 15 848 17 798 16 753 3 799 2 788 1 767
7035 -65.553324323964461 32.695048498809172 114.42193185277463 30 30 33 0.33278768651718466 4 824 5 820 13 891 14 827 21 828 30 861 31 823 18 799 32 844 15 857 17 805 16 761 3 802 2 790 1 771 33 852
7919 9.8891934712880811 18.372661145846063 65.558374010935367 63 114 113 1.1616762409143235 24 2803 31 2520 11 2813 12 2799 7 2734 10 2823 9 2650 23 2808 24 2950 6 2768 28 2873 29 2997 28 2971 26 3097 30 2998 25 2989 13 2900 19 2985 31 3009 32 3021 17 2662 17 2916 33 3109
7036 29.084104252007577 19.199320925438645 71.001389567676497 35 58 49 0.74737416212899832 5 1614 18 805 4 1669 6 1602 11 846 15 868 3 1579 1 1504 2 832
7913 -7.3980106723825454 -5.7804303706883866 28.274697997552277 30 44 28 1.9969678354152403 21 1932 31 1895 16 1768 24 2680 11 2750 8 2511 23 2537 18 2248 2 2248 14 2566
7038 -60.999351392044765 34.039219736342346 115.83804844671242 20 23 30 0.34753612263793376 4 836 5 829 6 855 12 876 13 915 14 849 19 914 20 894 21 848 22 841 28 825 29 861 30 870 31 837 18 818 32 854 15 877 17 815 16 773 3 817 2 802 1 785 33 865
7702 -58.65096237143505 9.5622737338656822 108.61615286974676 38 61 41 0.11364653925912932 13 628 20 604 29 567 17 573
7041 -63.36292392109106 35.820853966745048 112.28408536575836 25 25 33 0.44721312437875882 4 891 5 868 13 959 14 888 19 943 20 923 21 889 29 900 30 904 31 873 18 851 32 888 15 909 17 843 16 805 3 865 2 837 1 824 33 895
7187 1.6188974130296003 28.726143634866364 110.11143018839395 19 28 20 0.72992969610836678 14 2131 19 2595 20 2545 21 2535 18 2445 24 2578 15 2146 17 2056
7042 -64.413406524239051 36.557853909064214 111.56621617695899 23 23 28 0.41520299128813737 4 902 5 1636 13 970 14 898 19 951 20 930 21 900 30 913 31 890 18 858 30 914 32 903 15 915 17 851 16 816 3 876 2 847 1 1522 33 903
7045 -48.399918794754186 33.68553420719946 93.77202816404386 108 167 125 0.38990286708654665 21 955 29 939 31 930 18 910 32 944 15 980 17 906
7046 -60.150616079200972 39.551639826411417 109.77276785827884 34 39 43 0.67154289684883717 14 951 19 1014 20 982 21 963 22 938 18 912 6 951 13 1031 28 911 32 951 15 983 17 907 16 865 3 924 2 905 1 880 33 944
7700 -46.000990602503983 4.8273171421360841 90.174196131556272 33 62 40 0.14051031518323784 12 570 17 525 16 478 1 518
7047 22.812221554736553 29.69425127549469 85.104363811014579 32 48 43 0.40241023924295716 4 970 5 941 6 963 13 1044 14 965 19 1023 20 983 18 931 12 970 7 979 21 952 15 998 17 1652 16 885 3 961 2 935 1 918
7710 -46.585659503752936 24.468933785051693 99.598842513766186 34 56 36 0.40652008189191324 6 795 11 803 17 756
7049 15.274301877039402 33.416814496367628 93.339211169345731 55 64 62 0.26587550063678983 6 975 11 977 13 1055 21 971 18 939 4 978 5 952 15 1012 3 967 1 921
7195 -35.356446394284546 38.290008451342594 93.767227313552638 18 24 22 0.61007884300633508 14 2515 19 2662 20 2276 30 2256 31 2570 18 2514 29 1753 32 2797 15 2576 17 2832 16 2738 33 2635
7050 21.905164341394187 21.885088502936593 61.707562170264367 132 194 184 0.12426086328835136 30 912 31 904 18 940
7708 -30.21042425235186 20.073334988147465 92.544381847705438 40 72 40 0.44936781174412993 4 742 13 802 14 751 19 809 20 772 21 725 17 714
7055 8.5894009567640968 39.437865539594974 99.01262421225077 50 53 58 0.13335808734809268 20 1067 22 1008 18 998 17 1000 16 952
7782 5.6743366879590429 -0.16673633523923392 26.879300757099642 253 126 132 0.20329428456468826 15 2695 17 2588 16 2513 3 2574 2 2353
7057 16.734993555973858 26.532830463911623 64.584868490553816 72 120 118 0.43470592325324581 27 1036 18 1026 28 958
7058 23.446757580969223 24.732031807474655 60.603690861921102 120 178 161 0.32188063003431783 26 1032 27 1026 18 1031
7059 -11.344587120484542 47.973856673762057 113.69717668210282 24 32 34 0.23845170035577365 19 1130 21 1071 23 1043 18 1036 17 1030 16 1667
7061 13.637258422341253 28.153676148323132 67.196168242756485 120 156 147 0.066221534534008544 20 1102 22 1036 18 1043 17 1038
7780 -3.1316351015147816 -10.058343679594266 32.667784581905202 3 9 5 0.76722706967890175 32 2623 17 2513 33 2902
7063 -46.418374576642691 45.868363445767947 104.64522524385652 70 75 79 0.57267927737408042 21 1109 25 1075 27 1117 28 1029 29 1080 18 1048 32 1083 17 1039 16 984
7790 -25.913351745224972 -29.03091639582431 72.504147085201566 11 22 6 2.1586420930289956 19 3109 20 2812 17 2839 16 2750 19 2684
7065 6.6380696815762965 42.925151627226128 100.72472608517134 61 65 76 0.44699630280379976 19 1884 20 1811 21 1816 22 1048 28 1000 29 1046 31 1784 18 1058 17 1726 33 1065
7067 8.7804938277429709 42.200822180077132 98.445905530033684 32 35 42 0.25326227254839062 20 1121 21 1094 22 1053 23 1052 29 1048 30 1056 18 1062 32 1075 17 1054
7068 0.40449382342279266 -10.8635145905562 27.876396051318583 60 97 78 0.71606100058936439 22 5 23 1768 18 1094 24 1871
7069 -35.691578679706822 -30.242657885599144 75.595898031250911 128 180 198 0.62161241983720517 13 63 19 1186 18 1102 17 1093 16 1033 3 1067 2 1039 1 1011
7070 -4.9794711367690097 -11.545608485005708 33.814863183081208 4 13 8 1.3280598406115418 5 1114 18 1120 15 1186 19 72
7788 -28.197824309677106 36.648182879322874 92.765630214136081 50 64 38 0.62154668759449982 14 2849 15 2893 19 3103 20 3025 17 2828 16 2736
7071 7.3015984731878456 -9.6736885867799423 30.211541677161129 69 120 83 0.35756115678994621 31 18 18 1125 17 66
7227 54.789456512430505 -26.252303782367346 129.92011245523821 32 48 46 0.51137822341223604 19 3032 20 2969 21 2949 28 2919 29 2931 30 2938 31 2944 18 2874 22 2919 27 3008 12 2841 6 2804 23 2731 24 2878 32 2961 15 2922
7082 5.6551858080495716 -5.0941090313689434 29.080610604131682 60 16 30 0.095135846315060391 31 162 18 1229 16 1133
7897 5.5369743175165711 0.30473262306580523 27.499271536909699 254 119 125 0.9030850401585051 4 2914 16 2796 2 2829 1 2726
7086 -43.278444881945219 -3.9778652823631986 84.948084694997846 25 48 32 0.30808812435076716 4 1375 14 1367 19 454 20 435 18 1323 13 1447 32 2013 15 1972 17 1877 3 1895 2 1892 1 1797
7740 4.0837259489312832 5.6579819272601179 29.996576263715149 232 98 80 0.23427308484466222 15 769 17 1471 16 1437
7087 -25.100670202098442 -3.8162980010204124 92.254134558690097 5 11 8 0.63148003102485184 14 1965 19 2092 30 1371 31 1395 18 1329 13 2047 20 2012 32 1400 15 1975 17 1880 16 1842 3 1902 2 2300 1 1800 33 1406
7686 -28.015235541187387 -12.026565061735237 79.599404309027776 54 92 78 0.18972928188520544 30 273 17 274 29 274
7089 -28.049393837472685 -2.678940953196113 79.754517666261862 27 54 30 0.41680492585124745 13 2054 19 1459 30 415 18 1334 16 1259 33 417
7171 -28.824504717062133 -12.700681285050818 76.480762056008373 24 51 27 1.7310464986054139 19 2442 18 2261 28 2794
7090 -5.3392832704643238 -0.26286915454691656 25.862263690021255 225 72 62 0.42708433047360622 14 1415 18 1338 15 1410 17 1315 16 1269 3 1393 2 1393 1 1329 33 1376
7091 -42.38646702934107 1.5213191051025048 82.743428541698123 33 63 35 0.85992377563524458 14 2005 19 2129 20 2051 21 1477 18 1369 15 2008 16 1293
7093 -35.282055996254478 3.3691384781462261 116.16405769265458 18 36 13 0.32052991610542475 4 1443 5 1388 6 1410 13 1517 14 1429 19 566 20 1471 21 1494 29 1451 30 512 18 1380 32 1472 15 1440 17 1358 16 1305 3 1362 2 1360 1 1305 33 1480
7094 -32.777290611334344 4.8473224263856558 101.93696252880974 9 21 11 1.1427987736961536 13 1533 14 1444 19 1515 20 2066 21 2077 18 1397 4 2049 5 2016 6 1972 12 1971 29 1462 30 1464 15 1451 17 1371 16 466 3 1946 2 1937 1 1320
7684 -4.7091523788277856 -4.0021451738752365 25.785327353338367 249 125 111 0.36671151945873998 15 310 17 254 16 1158 3 1269 2 1871 31 1255 33 165
7095 2.9986935202094802 2.4959510112746797 27.209153751175105 202 90 76 0.26088389398919415 14 1502 18 1413 15 1496 17 1389 16 517
7694 -0.14498515702829362 -0.25097084934691688 23.920751227067143 215 55 57 0.22601493898930994 15 489 17 408 16 351
7097 -25.79556796156508 10.403331777428765 103.72429363118999 9 16 8 0.65928439061205713 19 1558 29 2088 18 1432 30 2081 28 2073 32 1534 15 634 17 1408 16 533
7179 -43.884831904065038 3.3673231676054138 88.666558950616647 61 95 93 0.29476983979496363 5 2374 13 2482 14 2369 19 2511 18 2360 6 2331 21 2467 12 2339 22 1441 11 1434 8 1458 15 2421 17 2332 16 2259 3 2330 1 1855
7098 -1.4604811591466469 3.6754266263396156 27.014685597078227 194 48 47 0.25487494590950138 14 1543 18 1447 32 1492 15 1535 17 1430
7102 -24.142311017740052 16.389240325232773 121.53133748683615 44 63 17 0.35476158964803828 19 1587 29 1530 30 1531 31 1548 18 1460 14 1517 32 1557 15 1521 17 1443 16 1397 1 1372 33 1556
7692 -24.489315833225024 -3.8614553535659719 93.446813519121449 30 52 41 0.43870397014813722 13 1456 14 1375 31 385 17 400 4 1383 16 336 3 440
7103 -17.087665970009901 14.193507334038294 97.526402725106834 88 125 94 0.31719858788661648 14 1530 19 1601 30 1538 18 1466 31 1553 32 1559 15 1534 17 1448 16 1404 33 1561
7251 -0.016748305368883026 -10.552008970749846 28.989260491096815 66 108 85 0.42841592046541899 19 1205 13 1204 18 1105 24 1179 8 1161 23 1097 6 1798 5 1107 14 1818 4 1141 15 1182
7106 -41.899356834063838 18.576102658073399 103.35610301478937 31 52 37 0.87148442335312926 29 1563 18 1489 28 1554 22 676 29 1556 32 1584 33 1586
7109 -19.021754163933526 23.791327495761703 113.02269652544264 34 22 24 0.31944201493561947 13 1656 14 1579 19 2242 20 1612 30 1589 31 1605 18 1514 29 1589 32 1604 15 2115 17 1502 16 1462 3 1512 2 2030 1 1934 33 1624
7764 -5.4865052352387593 48.887674255699245 112.96532359759735 20 29 25 0.32162797872535243 19 2364 23 2204 24 2329 17 2144 20 1815
7111 -64.173267392222542 27.500160649312363 121.74875243243051 12 13 18 0.43294568522390381 4 747 5 742 6 1546 12 1554 13 1663 14 758 19 1666 20 1619 21 1637 28 1593 29 768 31 750 18 1522 15 792 17 732 3 1521 1 698 33 788
7774 15.858023972045764 16.849982481343687 65.549324267681911 100 164 155 0.25496932117721555 14 2453 17 2411 16 2330
7113 -60.452565847849847 32.815595073666103 115.59368544194115 17 20 27 0.34635855220623707 4 1646 5 1590 6 1593 13 1716 14 1635 19 1733 20 1678 30 1654 31 1669 18 1568 12 1612 29 1645 21 2225 32 1662 15 1649 17 1550 16 1506 3 2064 2 1563 1 1479 33 1678
7772 -1.9279653458437152 6.0965873521021283 29.431404707848092 36 13 26 0.30112612825508384 15 2488 17 2384 16 2314
7469 1.1282460709175615 5.6409439699638781 27.807831742818848 206 81 75 1.1237038102692014 18 2921 32 3001 15 2869 14 2822 16 2708
7119 -34.455582452154673 34.317687707614745 89.114684250392884 35 39 42 0.66813855245505038 10 1013 19 1050 20 1022 29 977 31 1745 18 1663 15 2217 11 2211 2 962 1 1602 33 970
7123 -54.141786225398363 44.369663986423113 100.41258882373276 104 119 134 0.45332209050332634 19 1882 20 1814 29 1082 31 1053 18 1710 32 1780 17 1720 16 1671 33 1821
7844 20.523753016317308 31.586424745932558 89.026527536270308 35 46 48 0.32770245990740127 4 980 14 974 15 1006 16 892 3 968 2 938
7477 3.6706747924345242 -1.8279038928520992 25.538156795539688 225 40 49 0.34980604760708628 31 3134 32 3159 17 3051 16 2967 2 2991 1 2887 33 3258
7127 -30.753676418652905 -31.561443568106288 81.343367786937208 68 114 86 0.83459841587884342 4 2256 5 2225 13 1877 14 1805 19 1908 20 1832 18 1736 12 1762 15 1820 17 1746 16 1696 3 1725 2 2169 1 2062
7854 -38.095510831729008 -31.458004677355198 74.810476468617779 17 33 17 0.68973441504405442 13 35 16 1024 1 46
7129 -0.73430788495077715 -8.924331990783406 30.932919754855401 45 72 52 1.8377650786895028 4 1898 18 1764 5 1865 17 1776 3 2212 2 2211 1 2380
7134 26.547662803352036 -8.5161043356682917 71.43603286390524 94 136 133 0.27677887056061079 5 1939 19 2039 18 1857 32 1950 15 1937 17 1842 33 1999
7852 -25.084188104063394 49.695504216734484 114.15176635370744 79 86 100 0.23908769625980258 19 1154 21 1106 16 1004 33 1074
7485 -4.0458493338414936 6.4368665334860626 28.416289787309132 217 116 135 0.52299127128849676 28 639 20 770 30 664 29 1547 13 855 19 801 5 1611 14 784 4 858 18 724 32 1567 11 833 22 723 26 702 15 805 17 712 16 676 3 841 2 819
7135 27.401203066955755 -7.8002704359785682 70.178064388703504 112 155 147 0.3139374003224899 4 1969 14 373 18 1862 15 1341 17 1849 33 1341
7798 -39.889126514453906 -23.189879393895954 75.007612486213716 123 168 167 1.2155866739054793 4 3020 13 3102 14 3028 15 3074 19 3182 20 3111 17 2993 5 3000 3 2954 1 2878
7137 -19.302012546793449 -5.4893066613267019 78.320491670934857 26 49 33 0.56536083728618125 14 1350 31 1995 18 1901 19 425 32 366
7283 -24.468420058200984 -9.7452400924400013 81.219472607498403 85 138 120 0.026102030872307516 29 332 30 318 31 300 32 317
7138 -57.472441168586087 -4.6119337400270535 99.282174355741006 42 58 34 1.4397329388240447 4 1986 19 2083 18 1915 5 1961 13 2439 14 2324 15 2367 3 1890 2 2291 1 2168 18 1917 19 1455 14 1370 20 443
7141 6.1175904309116751 0.27840355109417408 27.254083698402003 253 67 63 0.6062082216715996 12 1969 18 1938 17 1329 33 2039
7796 -12.786162716964203 -9.4187751458250304 34.127708546926385 91 148 160 0.46946992918036362 18 2956 17 2940 16 2847
7143 -48.247514263207265 2.7114030627752213 83.36212902743344 102 157 159 0.63584849262767973 4 2040 5 2010 13 1522 14 2014 19 2140 18 1962 15 2012 17 1932 16 1891 3 1942 2 1933 1 1850
7806 7.1084086910344135 30.161813436388666 97.627464239447789 17 25 27 0.77976075810802525 11 893 13 957 31 849 14 892 18 854 32 1681 15 911 17 847 8 932 11 898 21 885 29 869 30 874 16 1544 2 1617 3 1602 1 1523 33 1710
7145 -57.427878005632579 6.5017422666080149 106.09504864917355 46 74 48 0.50591930921473394 6 1433 14 1451 18 1973
7291 -36.66044420342913 -1.9466615222494099 112.43164773966552 93 101 27 0.39466064079207319 28 428 29 455 30 454 31 422 32 449 19 486 20 465 21 441 13 513 18 425
7146 -59.694811269247204 9.9944924887765847 104.02272269277265 66 91 68 0.18145258076257484 13 2115 14 2044 19 2172 20 2088 21 2105 30 2080 31 2091 18 1994 32 2083 15 2045 17 1962 16 1356 33 2137
7750 1.5116930976195955 -2.3021360706092135 24.291283413368514 210 93 85 0.65175688421890909 18 1865 17 1848 16 2193
7153 -3.3758260788693857 6.3387138298312999 28.208349125685661 194 121 124 0.14757338274043649 31 2123 18 2063 32 2120
7235 -30.660877504910008 11.762265198310359 97.875798827597706 37 72 40 0.46064820476889501 4 3047 19 3154 20 3086 18 2989 3 2937
7154 19.74711958691941 15.474935558060482 67.043468303649419 27 56 20 0.28129830969574054 19 2252 31 2159 18 2084 32 2166 33 2211
7155 -17.162807382765578 27.933411082340914 100.03972011841019 19 25 29 0.9250418966101982 4 1651 14 2139 29 2191 30 2193 18 2104 5 1597 14 838 20 879 21 1689 19 2275 32 2206 17 2068 16 2017 2 795 1 1968 33 2248
7748 0.059804566771777021 -10.827719540931644 32.026522813796227 8 17 12 1.1960157364036932 7 1162 8 1174 17 1758 3 166
7159 -19.155335320034517 29.82164644089011 90.14771472981684 79 131 82 0.21952473728143199 19 2315 20 2239 29 2213 30 2217 31 2214 18 2135 32 2231 15 2189 17 2094 16 2053 33 2272
7758 -39.95890949427487 18.702519011848597 101.28923606779169 51 93 53 0.26303237891305653 30 2136 31 2143 32 2140 17 2014 28 2128 24 2195 26 2220 27 2209 23 2078 25 2134
7161 21.753041615375913 31.110036681878711 86.199972239778504 33 52 52 0.22033924317896111 4 2223 18 2151 5 2189 17 2113 3 2134 2 2133
7243 -32.608992080463793 0.33170563693372762 113.46743789291027 95 107 33 1.1470982449100309 4 3100 5 3056 14 3112 19 3249 31 3141 18 3113 13 3158 20 3174 30 3138 32 3167 15 3161 17 3060 16 3008 3 3002 2 3021 1 2917 33 3270
7162 -51.301511110921034 39.55290646485637 96.165306425688883 32 41 40 0.6138968055378482 19 2347 20 2275 21 1800 30 2259 31 1770 18 2163 22 1019 28 1745 29 1026 19 1098 32 2267 15 2574 17 2123 16 2394 33 1791
7166 -35.933991110295246 -30.635751931219151 78.191407075598406 119 167 159 0.73025687480045398 13 2616 20 2301 18 2191 12 2489 21 2600 22 2562 23 2509 24 2648 17 2154
7756 0.49235368012367053 4.8338948425877835 26.125566285417936 175 36 35 0.83365375331212799 15 1580 17 2007 16 1430 1 769
7167 3.1915411395944555 -10.24459895442283 32.058732213547486 93 147 184 0.72213329439161489 10 2241 18 2205 17 2169
7169 3.6368002536469044 -8.0428264734611492 30.731426640703798 82 119 114 0.35492866316121419 31 2306 18 2227 32 2324 15 2287 17 2184 16 2133 1 2106 33 2368
8116 25.73891013459134 0.43487989945304945 61.549518386497994 59 101 117 0.3471456954410313 14 1416 32 443 15 497 18 454 3 542 24 518 11 1419 10 547 8 576 23 483 22 465 27 468 28 429 29 451 26 484 25 445 2 513 1 505
7173 -1.9116208292638939 -2.6281901501864038 25.783146184296275 251 198 179 0.37585677528987232 5 2345 18 2287 32 2380 17 2251 16 2192 2 2303 33 2426
7176 -3.5584834426911773 -0.48512323602190971 25.86453630658437 232 92 89 0.18619049310451558 31 1991 18 2325
8120 -55.810803158822431 18.679727174856065 97.590051037180444 3 3 4 0.8349397762008991 13 768 14 712 18 691 32 710 17 681 3 1494 30 2488 15 2471 16 1963 19 1637 31 1582 5 2421 21 2740 33 724
7177 -2.0752141099114398 1.0961768411323261 27.40094862297812 214 128 64 0.43677382584594165 14 2382 18 2352 15 2423
8581 -25.821709278848019 44.894130664896785 107.89505813175562 42 49 54 0.27351038319257914 15 1786 16 959 17 1705 18 1699 32 1762 33 1810 19 1872 20 1804 21 1805 22 1764 29 1761 25 1755 26 1836
7178 28.123811162310208 2.8306611594723092 81.953401440979803 54 81 65 1.2102460958749783 7 1938 18 2359 10 1427 11 567 20 546 13 1531
8124 -33.484613079692494 -4.8531559182216775 83.560834174018325 22 36 23 1.1622820978057125 10 2321 19 2762 21 2681 14 2608 31 2686 27 2468 29 2400 18 2616 32 2702 15 2676 17 2580 3 2543 8 1371 9 1814 10 1356 24 444 5 1955 11 442 23 405 26 434 16 1833 2 2558 1 2432
7181 -34.654447170867073 4.6455758830755105 82.733993075607671 36 61 48 0.40041662216154655 4 2390 5 2379 14 2378 19 2515 18 2366 16 2264 3 2343
8064 61.94507715756275 -22.232846619140339 138.0834346756759 16 30 19 0.38304053637417951 4 2313 5 2296 6 2250 7 2214 12 2263 13 2386 14 2277 15 2312 3 2245 2 2245 1 2127
7185 -17.969034588999158 24.67939342501197 111.39569996844672 50 60 69 0.30866298637618289 13 2534 14 2441 19 2826 31 2509 18 2428 30 2501 32 2527 15 2489 17 2397 16 2319 3 2612 2 2624 1 2504 33 2561
8068 27.49814619526191 7.877018888727477 74.651713207876327 19 40 31 0.66867950540241194 6 2374 7 2311 3 2369
7189 -5.7946101154436613 31.689883398706392 109.09607028166864 37 45 48 0.53784320889338266 14 2146 19 2611 20 2557 29 2514 30 2517 31 2525 18 2464 12 2431 13 2564 21 2545 27 2582 28 2496 22 2499 32 2543 15 2522 16 2347
7190 -44.703741232371655 29.84193821456596 95.060304565956457 13 17 16 0.30997772153825365 5 2701 6 2651 14 2701 19 2619 20 2562 21 2553 18 2472 15 2528 17 2436 16 2354 3 2629 2 2641 1 2523
8072 -43.728767660600148 -28.82142101088488 75.381386790572094 23 42 23 1.064992740282918 15 2596 16 2108 17 2506 18 2543 3 2472 2 2478 1 1650
7193 18.580446001268527 21.3886473425129 58.606010405773482 148 200 140 0.45256120301919439 30 2537 31 2549 18 2500 32 2568 15 2562 16 2388 33 2619
8076 34.522073128895421 -10.188487460200042 77.756111414357619 14 18 21 0.92501345919227695 4 2598 32 2386 3 2523 31 2660 2 2540
7197 6.00354394038773 45.294522817782415 109.40949082866072 34 37 45 0.37917568626893838 19 2671 20 2285 21 2304 22 2246 29 2254 30 2261 31 2575 18 2519 32 2589 17 2691 16 2603 15 2584 33 2883
7200 -43.773398325822953 -28.668162540528812 75.427705595398152 21 39 22 1.308258500984631 4 2546 13 2618 14 2526 19 2689 31 2794 18 2542 5 2527 20 2622 32 2816 15 2595 17 2505 16 2109 3 2473 2 2479 1 1651
8016 -19.283101835615604 7.9865886596194748 103.12760012150447 31 61 31 0.33352121531499845 31 1493 32 1512 3 1402 2 1409 1 1339 33 1513
7201 -30.114305648464715 -19.294485156345285 62.560282504933582 52 96 50 0.72493507893002684 13 2631 14 2538 18 2553 32 2633 15 2793 16 2431 2 2686 1 2564
7215 19.307983089944354 22.295675524726988 59.155570491817215 178 223 189 0.40917695951593308 20 2799 31 2777 18 2710 32 2789 15 2768 17 2683 33 2874
7216 19.307983089944354 22.295675524726988 59.155570491817215 178 223 189 0.40917695951593308 20 2800 31 2776 18 2711 32 2790 15 2769 17 2684 33 2873
7231 -12.412226700013196 -9.5674864275628764 31.164401219918084 33 62 42 0.85320507922546462 19 3181 18 2954 17 2938 16 2845
8691 -7.6947113967069019 -4.787656130905571 28.670047110908516 245 118 97 0.50343945852730254 5 2582 14 2578 4 2597 15 2647 16 2471 17 2554 3 2524 2 2541 1 2416 33 2722 12 2537 24 2419 7 2479 9 1776 22 2330 27 2404 28 2319 29 2334 20 2660 26 2415 25 2320 13 2668 31 2634 18 2590 32 2655
7232 29.298993969075131 -9.5631039036419168 75.331259831771277 83 128 110 0.63332415437369005 5 2941 31 3047 18 2966 32 3061 15 3009 3 2862 2 2882 33 3146 17 2948 16 2861
8176 -9.4596858040355585 19.037143363246791 92.324708012633792 72 116 76 0.34094041907120004 15 1584 16 667 17 1496 2 712 1 696 33 755 27 747 26 753
7233 -36.269361645211745 -6.1073600445217915 79.062725531286844 39 42 32 1.8225524146704162 14 2977 28 2934 13 3053 22 2937 27 3112 29 2947 21 2964 23 2962 4 2972 5 2948 24 3087 20 2856 12 2854 6 2907 11 2861 7 2792 15 3015 17 2950 16 2868 3 2867 2 2888 1 2786
7234 20.488847459464981 4.5886815674000623 60.926861287593091 67 103 97 0.63049929280815298 4 2991 14 2987 19 3146 18 2985 5 2969
7239 -46.330491847164858 4.6709237539708086 78.006960107766872 105 164 201 1.052469333371473 14 3055 19 3211 20 3131 31 3113 18 3040 32 3132 15 3098 17 3018 16 2933 3 2929 2 2958 1 2889 33 3166
7242 -33.496553318872579 0.36239661350493879 117.03680763452074 95 107 33 1.0987074267599817 4 3101 14 3113 31 3142 18 3112 5 3057 19 3250 13 3159 32 3168 15 3162 17 3061 16 3007 3 3003 33 3269
8188 -22.230335391458631 37.173518311980708 101.32954195398958 37 45 25 0.25822216472586534 3 956 32 963 2 929
7245 -40.601103793534335 35.46461101446539 95.301718446134586 26 30 33 1.0176662609455449 19 3279 20 3204 21 3178 29 3175 30 3164 31 3171 18 3121 28 3149 32 3194 15 3167 17 3097 16 3014 33 3297
7247 5.2450692700912045 7.2709661257967069 40.385218721279188 229 63 68 1.928372079261526 19 3300 20 3229 18 3141
8132 -58.085269070443204 39.130487306135734 108.10904373719453 38 41 46 0.39310925842030225 4 954 13 1036 15 988 16 868 17 910 3 929
7253 -37.780160059241595 4.9034411420968214 85.216152193135457 36 62 46 2.230505313890637 12 1978 22 2053 23 2019 24 2110 20 2076 19 2157 5 2032 14 2032 4 2066 18 524 5 1416 6 1429 12 1425 14 559 15 581 15 2028 16 471 3 568 2 536 2 1949 1 525
7264 -31.011199720221317 -19.777219974672708 64.073127270542471 46 91 44 0.18985280482492137 5 170 32 72 16 105
8080 2.4899477236482026 3.0744498088035788 27.258039329712645 213 160 157 0.39311380758906428 4 2684 3 2605 2 2394
7265 -38.450262796025427 -20.955664902989678 69.863824669938651 69 114 77 0.61484312525654639 6 173 14 176 20 128 32 90 15 134 17 121 2 173 1 170
8084 -1.5737206763664051 -11.683707042067132 28.768578562198407 55 100 79 0.93229750987493099 15 2781 3 2651 2 2675
7269 76.377288567841362 -42.197404149237052 160.2314010912028 47 66 60 1.3546943500789617 8 1197 9 1086 10 200 30 136 31 117 32 121 11 187 21 1252 29 120 12 182 22 1208 7 215 13 1263 20 166 26 174 5 210 19 169 23 161 24 205
7270 73.075811414856176 -40.01630892662449 152.8585640754533 47 66 60 0.72535730695033196 8 1198 9 1087 10 201 11 188 32 122 22 1209 12 183 7 216 26 175
7271 -46.255578184565465 -19.595190363798118 72.272095952606477 124 177 176 0.44123759595398737 14 208 18 155 32 127 15 165 17 158 3 191 2 195 33 117
7272 54.494660732352855 -38.474282757795173 146.55570872285512 7 14 10 0.45679028678100925 24 196 26 168 32 130
8088 66.532865514794977 -35.130129876380337 141.16071528014163 16 19 18 1.0328360918998323 19 2895 31 2817 21 2825 30 2808 29 2802 32 2837 22 2785 12 2724 11 2742 7 2654 26 2908 23 2722 24 2868 9 2553 10 2732 6 2693 8 2673 25 2793
7273 1.3944713022749207 -4.3639548451435051 23.771170140080997 72 66 56 0.61197614851690452 24 248 31 134 32 139
7274 54.59691007267088 -37.856618040419576 151.37143270923914 32 53 47 0.50666099031995737 6 240 7 230 8 244 11 214 12 195 13 226 19 193 20 190 21 165 22 165 23 174 24 217 25 183 27 153 28 134 29 146 30 157 31 138 32 146 9 202 10 214
8092 0.52724693073010909 -2.9030485391112402 23.299222576580696 247 113 119 0.33493988571130112 4 2787 5 2760 3 2701 2 2724 1 2436
7277 -9.9925367295757379 -4.6810739367860457 28.777339612721573 68 116 98 0.29160987456199117 18 256 32 196 17 253
7279 -23.375024251081786 -11.313352487772427 80.230664072138708 81 139 123 0.23445208778676987 29 296 30 291 31 272 32 283
7280 -22.860208369447342 -11.542930512453774 82.507361185591137 50 98 44 0.14740368170564971 29 302 31 277 32 289 33 286
8160 -18.499951864682949 7.1440955847920007 108.07178374533399 45 74 82 0.32099965313419471 3 581 31 525 2 547 32 558 1 537 33 573
7281 4.2397451236114918 -1.5975008120674152 25.36101222028843 222 131 203 0.20027530673888055 18 352 32 290 17 354 16 296 33 278
8164 -34.163707415336084 9.6493967258834914 102.5464994628859 31 60 29 0.37006041202911533 4 618 5 611 6 635 7 638 13 638 21 565 2 578 12 623
7285 -32.519352232553132 -6.3292078465072708 89.691833198038026 3 9 4 0.8156440071562866 13 443 31 356 32 372 14 1349 17 367 16 308 3 396
8172 2.577515770699343 2.4543529388884764 25.839146667328766 203 37 48 0.43284676483626355 3 693 2 671 1 661
7293 -26.684180357972149 4.4644122563558648 109.00309874385137 8 11 6 0.37429376392194652 14 543 18 510 19 586 32 529 4 1460 13 577 15 556 17 508 16 456 3 1378 2 1378 1 1314
7294 -26.295167557264897 5.1515840798444801 107.06859377884231 41 69 54 0.3208960377299353 4 556 13 586 14 554 18 1398 32 533 5 553 19 595 15 573 17 518 16 464 3 560 2 1386 1 1325
7296 -35.107907102102821 7.5174329897492411 78.691949432870217 67 102 98 0.3556936670238216 12 1462 32 586 9 1388
7297 -34.43697746361962 9.3678524093074067 106.98201305719968 5 12 6 0.69247896316504953 14 603 19 640 20 608 32 587 4 604 5 602 6 626 15 1482 31 1503 3 597 2 562 1 558
7957 -36.153845707962304 3.8373588507711855 86.098366663659178 39 63 51 0.22249316989921936 15 565 17 1368 18 512 3 558 2 525
7300 -21.753008854075418 10.791621749474134 101.51780520105183 23 46 22 0.34839546705033181 29 582 30 601 32 606 17 594 16 542 33 625
7965 -4.5350504138116623 1.6166390765397101 26.566297475173293 205 50 51 0.1907251227554356 16 467 3 653 2 626
7308 -25.857713950387481 19.471129567568337 117.50295521903568 4 10 6 0.40852481095744014 13 727 21 666 22 655 31 671 32 682 15 710 17 1461 16 1418 31 1570 2 1476 1 648 33 704
7310 3.6166919205251138 15.517859809353268 86.760079261381307 54 90 52 0.15243939730887757 26 711 27 1598 32 688 28 645 33 717
8033 6.1721439885428442 39.470745638163059 101.63459671486424 65 72 79 0.30417792601919413 5 1724 6 1024 3 1689 2 1713
7315 28.346638915674127 16.338924295872559 72.944654289668023 38 68 32 0.45907735127075294 5 780 32 745 15 802 17 749 2 766 1 751 33 775
8037 -16.554104251313323 -28.628749594969289 74.578614534413219 12 21 13 0.83981981780038772 5 1775 3 1729 4 1103
7316 10.996612849646171 18.314674851944755 77.47725416469558 27 49 25 0.25977824134657956 20 806 31 747 32 761 17 759 33 793
8041 63.557356179714652 -18.519326981853684 131.20510341418793 84 116 125 0.2625338234776502 4 1944 5 1254 6 1275 7 1286 12 1275 13 1376 14 1914 20 1330 21 1351 3 1855 8 1304 10 1284 11 1280 22 1291 9 1193 23 1277 28 1266 29 1307 24 1374 30 1295 27 1350 31 1314 26 1373 25 1303
7320 -5.6743528061963717 25.553880524257085 96.878634778518233 22 34 28 0.54794738983337898 20 848 32 804 33 1665
8045 -3.4807619951429554 1.753993186131249 27.155124749859844 227 185 183 0.048762902023200848 4 2093 5 2062 3 1991
7324 -48.946701575491446 30.222300467767845 96.540627486258188 86 139 116 0.09690416247988129 29 884 30 889 31 855 32 873
7325 14.87493755979264 24.179902718885565 75.34269356391026 16 24 20 0.83196346296753576 13 983 31 852 32 877 18 874 19 1782 4 933 5 906
7326 -66.691298130262069 35.275791322087116 111.54035349299257 29 28 32 0.45997994295518729 13 952 20 916 30 902 31 869 32 886 4 887 16 801 3 1588 2 1597 33 891
7327 -49.096557511241876 31.299668701683629 97.263395408622927 73 119 83 0.40119813690226175 13 968 28 856 29 1672 32 889 33 896
7985 -42.730203859911875 33.237819315011379 104.05413984505047 25 31 32 1.1702304630292188 15 908 17 1589 31 867 3 874 18 848 32 2225 18 1602 19 947 30 905 2 1612
7328 9.5953716291611197 31.69453675874346 94.678248174963016 50 56 56 0.10729189121233761 13 1006 30 910 32 910 33 922
7993 -59.522503288351487 42.210103325474137 108.89949717646404 43 53 58 0.53280187324835704 4 993 15 1029 19 1052 20 1027 21 1009 3 978 6 1003 1 933
7336 -47.66948231612767 39.783367018563879 92.434376222902458 69 115 69 0.43490049835788597 19 1126 20 1096 28 1013 31 1024 32 1064 16 964
8156 -4.8412179328758107 -1.7073212033883947 26.695652846576493 183 47 39 0.34295314703891161 3 509 2 477 1 1279
7341 -57.130768013568705 46.16234236039864 104.8643978776437 38 41 41 0.63388881225942351 19 1145 21 1108 29 1083 30 1083 31 1051 32 1089 22 1078 28 1032 33 1056
7937 -10.354529298715704 -14.058300667572365 39.132917294421361 26 55 38 0.23664333940903629 17 46 18 49 3 138
7344 11.188222502894494 42.169876285279386 92.849672418348717 48 52 53 0.18818244245181409 27 1118 30 1088 32 1116 33 1111
7941 -29.924513041913883 -19.132879586537221 62.559510212541745 48 94 44 0.21543974863950521 5 175 6 175 3 164
7348 -49.196252719485663 44.649005188403422 95.613367887148883 108 165 136 0.30089327184909592 28 1056 29 1113 31 1087 32 1126 33 1101
7945 40.550029115361355 -20.927715902314862 104.96944929268759 19 28 20 1.9650862838604999 25 1917 3 278 23 1870 24 1964 26 1998 27 1990 28 1888 22 1903
7352 14.071438008845362 31.145425074797263 63.101320067229928 116 180 162 0.15727342246581216 27 1147 28 1057 29 1119 32 1147
7355 -43.786414464766203 -25.233179639294999 77.007109150216863 3 9 4 0.40727077660994393 13 1215 32 1193 19 1226 18 1136 3 1111
7949 27.932558176573217 -5.3744749819656441 71.314701773704897 56 85 49 0.14630655559397454 4 423 5 458 3 419 2 416
7356 55.895137466737694 -40.041309847723873 146.58564498499317 37 60 52 0.40341019930836564 5 1126 6 1167 7 1176 10 1164 11 1177 12 1188 13 1253 19 1962 20 1222 21 1238 22 1199 23 1179 24 1266 27 1245 28 1161 29 1212 30 1191 31 1203 32 1226 14 1179 18 1159 8 1188 9 1076 25 1875 26 1958 33 1931
7357 67.788390145717912 -34.964089393810767 147.28534194386896 52 74 71 0.57882978708689969 9 1111 10 1200 21 1270 28 1192 29 1243 31 1231 32 1243
7358 67.788390145717912 -34.964089393810767 147.28534194386896 52 74 71 0.57882978708689969 9 1112 10 1201 21 1271 28 1193 29 1244 31 1230 32 1244
8021 -59.479358818381634 18.650766789950453 97.553260640928556 39 68 35 0.4512090239976303 14 1561 15 1569 16 1434 17 1475 18 695 19 776 31 1584 3 1493 32 709 2 1486 1 1414 33 1594
7364 -80.478235712358995 -18.775506555948116 137.59602889679019 15 32 14 0.30402018298079853 4 1285 5 1238 13 1377 14 1294 18 1261 19 1376 20 1333 21 1348 31 1333 32 1343 30 1316 15 1324 17 1249 16 1185 3 1222 2 1218 1 1160 33 1349
8522 20.772543794356523 19.146554534837847 60.236528639804305 89 143 84 0.55539176363979748 16 840 17 870 33 886
7365 -79.342227839136342 -17.137333909016263 134.77747456408491 73 114 93 0.29485786363282912 4 1296 13 1383 14 1298 18 1273 19 1387 20 1342 31 1340 32 1350 5 1245 21 1357 30 1324 15 1332 17 1253 16 1194 3 1227 2 1224 1 1165 33 331
8025 -29.930837609986668 22.252378427734712 95.705296463421661 98 153 167 0.37145190695008029 4 2149 5 2108 13 2199 14 1591 20 1627 3 1531 21 2192 6 1556 19 1677 12 1566 22 2139 11 1582 2 2043
7372 -47.913448290218511 7.3043938481256472 90.729950243715805 45 79 54 0.34177845940928259 21 2098 32 1517 33 581
7379 26.554737606153402 18.754899474964535 69.256836695486626 18 38 17 0.11213291626528774 30 1621 31 1646 32 1639 28 756 29 795
8101 -37.7982797029808 0.10794084430499316 86.204427564928295 55 94 78 0.30074306576457482 15 2945 17 2887 3 2809
7380 -49.295286153338701 27.999920332498284 98.238890080981506 87 137 107 0.12606115080853969 28 808 29 1643 30 1651 31 1667 32 1659 27 1707 33 1677
8109 -34.81007226509707 -44.055244041141563 109.86146115416321 17 31 14 1.5482695800484363 4 3092 5 3079 16 2958 6 3046 2 3010 1 2909
7388 -60.819241969859526 44.564842249335115 107.13796967777809 32 40 43 0.69032309453328711 18 1693 19 1868 21 2299 30 1766 31 2253 32 1761 15 2229 17 2126
7390 -44.98151709552274 42.492893994121459 94.882125723365959 83 130 94 0.19426045311300891 27 1864 28 1780 29 1782 32 1786
8049 -21.890618961571324 19.138310067277043 87.393175062390753 107 163 187 0.31249444422103634 21 1627 3 2040 2 2035 1 1938
7392 -48.005956909515348 42.579209146671921 93.802587920145967 73 117 66 0.42012371070304666 28 2265 29 2271 30 2274 31 1807 32 1795 33 1829
8053 -68.045057783374247 34.861467833425863 111.46767670059367 39 39 37 0.41173106794271663 14 2160 15 2176 18 1589 19 2297 20 1705 31 1692 32 1687 3 2086 16 1532 17 1584 2 2083 1 1987 33 1706
7396 -12.67367336042469 51.818054170087692 111.43511669701697 57 67 82 0.22490030395599894 27 1883 28 1050 29 1801 30 1805 31 1823 32 1817 33 1872
7397 -50.321909591000733 44.950447952074775 94.694026662073441 135 188 177 0.42168215756932392 28 1802 30 1820 31 2279 32 1819 29 2278 33 1865
8057 21.230795987711101 31.605512167795279 84.749945907754054 7 18 13 0.22202466611469923 4 2229 5 2195 6 2160 3 2140 7 2107 8 1712 2 2140
7403 -23.660868889690057 -10.552737849266927 81.732677027265595 50 99 45 0.2133671395589804 29 1948 30 1952 31 1955 32 1958 33 2006
8061 -39.930796928223479 -20.33478353701123 77.943166617505938 34 61 48 0.42725109961603186 4 1888 5 1855 14 1857 18 2237 19 1969 3 2204 13 1938 20 1885 15 1870 17 2196 32 2345 30 1881 16 2140 2 2207 33 1943
7404 -6.4995485966483555 -2.1074145310608738 30.196614872588434 174 56 55 0.30590171239978958 18 1885 32 1961 15 1964 3 1918 2 1914 1 1822
7406 -1.1659084427655375 0.39501360937811364 23.841326470570401 240 100 95 0.29057733773656363 18 1942 32 1995 17 1908 16 1872 33 2037
8001 -1.3953476395462374 -12.609738320148802 28.893047132768558 61 112 91 0.12122687092326051 4 68 3 1069 2 81 3 74
7408 -55.136510226472929 7.3001105303067568 88.502023974969305 37 71 42 0.19304249683616656 14 1463 31 2083 32 2072
8512 17.038064156625992 13.752246698534066 78.440527314095235 48 80 43 0.59265839610741688 9 675 10 724 12 725 33 708 6 736
7411 21.214860804881653 13.317516237564472 68.431962510898288 10 27 11 0.18306246120836553 19 2234 30 2131 31 2141 32 2138 17 2391 33 2551
7413 -50.88268890194972 21.808174307096714 101.56221703754947 14 24 29 0.67349304420808809 7 2342 11 2433 22 2474 31 1608 32 2164 21 2748 27 2559 28 2473 29 2730 30 2883 33 1622
8009 -60.664850237519147 -10.562353360873427 108.20217597887799 105 153 117 1.7907858765156095 4 1330 5 1279 21 347 3 1257 6 1303 20 1366 2 1250 1 1764
7416 25.422547399403566 22.360700978582404 59.786630676600822 90 150 123 0.21039102265423693 30 2224 31 2228 32 2244
7419 25.105548071602016 24.450917838278478 59.698900701503803 131 193 180 0.37265326493900258 19 2358 21 1806 32 2265
8013 -39.218444132553721 1.2217651872178634 84.84202453000421 5 9 7 0.63486019876315702 12 1381 3 1350 2 1345 33 480
7420 -26.291176384983228 39.032989553674106 87.770003034572809 38 43 50 0.30579637879775057 28 2254 32 2279 29 1773 33 1067
7422 8.3628927169021363 49.402007237868879 104.09855180317332 15 19 22 0.18787163280486507 29 1810 30 1815 32 2297 27 1145 28 1058
8371 -39.371596539038904 0.24762339316350351 88.823390991146638 86 128 133 0.24299460490712663 2 479 3 507 4 493 15 491 1 1282
7424 6.0735705567214264 52.482185042187552 109.72872546752396 59 62 77 0.082925100444778771 27 2351 28 2274 29 2279 32 2300 33 2345
7856 -5.8748531863991014 -6.5691626350442931 30.644475370992453 62 58 58 0.087804850341438284 4 1266 16 1111 3 1210 2 1198 1 1147
7425 3.185102470597359 -10.316057037841318 32.228302749354079 92 144 185 0.45724103453283177 29 2284 32 2306 28 2578 30 2294 27 2356
7426 -43.972503874349023 -27.431387833113302 76.268316981615442 112 156 104 0.76201018648483332 20 2314 31 2290 32 2311 19 2381 17 2166 16 1708 17 1759 3 1739 19 1926 2 1762 1 1664 33 2358
7428 62.254551609319449 -33.17684154597594 140.1701712481389 18 20 20 1.170164019239561 20 2356 27 2401 28 2315 31 1903 32 2353 13 2644 14 2547 19 2718 29 2325 30 2630 30 1898 15 2616 18 2573
7431 -3.6344223641751521 -3.9863234838573574 25.646032348664789 251 135 132 0.19232648657032089 31 2635 32 2363 17 2557 16 2472
7864 -55.235785890829092 20.733138133316434 90.456240388281174 27 54 19 0.5480255417093145 14 1587 15 1601 17 731 18 1523 20 1621 16 1467 19 818 3 1526 2 1517 1 1442
7433 -23.583841742202665 -8.1299079394450935 80.617028845682086 61 108 70 1.4686283417934749 30 2385 32 2398 20 1369 31 1348 29 1359 32 1357 16 1211
7434 -35.80001023169298 -6.7385834672186169 86.744613067492068 33 55 27 0.72755146330013087 22 1968 32 2419 12 1910 20 1983 13 2020 17 1291 16 1233
7868 -9.53936145025658 43.485301950528452 119.96358622694547 67 77 94 0.2917927242113813 4 1738 5 1686 7 1677 13 1791 14 1722 20 1762 16 1603 3 1652 2 1671
7437 -0.80765128424272215 1.5678944658218044 24.410442840605782 195 39 41 0.32808840102603781 31 2030 32 2449 33 2774
7439 -29.364317711699631 13.169405989659648 111.82895361075219 1 8 1 0.32150725362392413 28 2443 30 2461 31 2471 32 2492
7808 -15.859519949034778 40.315408930973042 102.75236778386211 33 42 51 1.4093716513211076 12 1041 13 1101 14 1027 18 1675 14 1028 15 1766 17 1684 12 2476 28 2533 29 2553 23 2188 27 1810 22 1737 28 2233 29 2243 30 2248 30 2563 25 2534 31 2243 19 1850 14 2720 32 1734 33 1777
7441 21.079586925283984 12.984966622724412 69.659564340813702 0 0 0 0.19487810956884236 25 651 27 698 26 707
7812 5.8088276196067428 5.948018975597182 29.87255273329788 64 71 47 0.55083677179399593 14 762 19 782 4 812 17 1481 12 2061 30 2098 13 2198 32 2109 2 1566 1 1480
7445 -23.679264182392419 46.024328323229952 110.79825765794477 52 60 70 0.26507528987557311 24 2631 32 2588 33 2644
7447 -49.107544662815414 42.356774887309072 93.561870299819589 123 183 179 0.37892686157415162 28 2561 29 2579 30 2587 31 2588 32 2599 33 2652
7448 10.523046806793788 42.111627836798668 93.679132465294927 18 23 27 0.16280897352957499 25 2550 26 2665 27 2646 28 2556 32 2601 33 2662
7816 -18.730430466008794 -4.2777277319702751 65.218685733347144 0 0 0 1.4349996328102987 18 3078 32 3162 19 3244
7449 -15.490777612554252 51.206702659041348 112.27938736388053 17 25 36 0.22405909180679803 29 2580 32 2603 30 2779 31 2591 28 2751 33 2663
7820 -45.966533344219066 -22.955386745487495 73.259685940146483 127 177 155 0.47742538949752567 14 153 15 120 17 109 18 103 19 112 31 78 16 104 2 159 3 152 1 1057 33 83
7453 -3.5279101606336649 -5.2473183280579434 26.430105967926043 254 150 148 0.32119508990318962 18 2748 32 2647 15 2812 17 2730 16 2633 1 2703 33 2920
7456 19.978388279092769 17.466042494934811 60.616575411340214 45 78 59 0.62758390199931946 27 2576 28 2488 29 2505 32 2769 33 2855
7760 10.902995433164595 22.926080730113195 75.916691582335915 15 25 14 0.554576335914306 19 1762 17 2083 18 842
7457 6.8439285693001484 -5.1409809915750992 30.868289678820076 62 100 69 0.52859561997886084 18 2877 31 2823 32 2841 17 2734
7768 -48.268119255979506 -5.5171986753367417 89.162720474257085 29 52 34 1.3586866547289045 13 2691 14 2605 20 2685 21 2678 17 2277 19 2760 30 2841 22 2641 3 2279 2 2286
7465 7.2868331530737533 51.063352339861304 109.54266796407273 59 65 81 0.16641114672346372 27 2988 28 2903 29 2918 30 2923 32 2942 33 3026
7466 9.8516812332403276 45.55524567766092 95.368657191335842 51 53 57 0.20176628743769737 27 2853 29 2780 30 2785 32 2944 33 3031
7471 0.8682404589691981 7.0549590323631088 31.170236196761881 197 81 62 0.19659935025843989 31 2889 32 3007 33 3098
7840 -28.670047385186141 27.879726487705902 99.072521661813056 20 28 22 1.2885981469337808 18 1573 19 897 16 769 20 1677 14 1638 15 853 21 1688 13 2223 3 1567 2 1567 1 1971
7473 5.2159342535265241 2.2446925782326321 25.547826660259812 254 145 155 0.14557420573523136 31 3060 32 3075
7482 -7.8958602879435933 38.028239581533107 109.73211151647016 10 15 19 1.4971790081617631 29 3182 30 3173 31 3178 32 3202 17 3107 33 3298
8435 -38.61731952463024 -19.948491108211289 73.998115577016421 37 64 49 0.97268969753264267 2 2692 15 2797 16 2766 17 2719 1 2684 16 2623
7920 -13.374398426382902 -9.5378132814033236 34.244071714213078 77 135 110 1.0301306634403855 12 2225 11 2273 7 2185 8 2228 22 2285 6 2223 21 2345 27 2372 23 2243 24 2370 28 2295 29 2306 6 1833 20 2334 30 2316 13 1261 21 1201 19 1249 31 2308 5 2272 4 2289 32 2327 17 1145 17 1785 16 1090 16 1733 19 1952 15 1866 2 1803 1 1094 1 1703 33 1909
7489 -7.3478781234842767 -5.0001508727160378 28.523106519013531 69 73 35 0.88186608486966089 12 2739 7 2671 32 2650 11 1270 8 1321 21 241 24 265 22 233 25 198 5 386 18 1235 7 1856 6 1888 20 1924 30 2345 10 2554 27 2400 29 2329 20 2368 26 2411 13 2388 19 2000 5 1927 14 1905 4 1951 25 2595 15 1919 17 1205 3 343 3 2254 2 1238 33 1252 33 2404
7490 -1.3789741895298517 36.450503143910417 117.02052056140141 3 4 5 0.34556705391592341 13 2572 19 2624 21 2557 29 2522 30 2523 9 1991 10 2154 11 2169 12 2115 21 2247 22 2193 23 2151 24 2267 27 2279 28 2197 29 2206 20 2228 26 2288 30 2208 25 2207 13 2249 19 2303 5 2153 14 2162 4 2185 8 2117 18 2124 32 2555 15 2179 17 2087 17 2443 16 2044 33 2268 33 2602
